ncols	128
nrows	92
xllcorner	280654.681342
yllcorner	3772085.885776
cellsize	500.000000
NODATA_value	-32768.000000
4.71	4.91	5.47	5.89	5.76	5.39	5.32	5.76	6.21	6.48	6.49	6.34	6.03	5.86	5.49	4.88	4.58	4.59	5.23	5.86	6.10	6.14	6.18	6.28	6.22	6.16	6.36	6.40	6.13	5.97	5.97	5.91	5.85	5.92	6.01	6.12	6.48	6.78	7.00	7.19	7.08	6.84	6.66	6.96	7.26	7.31	7.11	6.72	6.44	6.87	7.19	7.36	7.31	7.35	7.32	6.93	6.45	5.99	5.97	6.15	6.49	7.12	7.38	7.37	7.45	7.25	6.78	6.01	5.03	4.52	4.58	4.85	4.81	4.51	4.22	4.25	4.30	4.18	4.29	4.50	4.71	5.06	6.31	7.05	6.50	6.05	6.33	6.54	6.38	5.95	6.00	6.07	5.87	5.92	5.60	5.18	5.32	5.02	4.53	4.53	4.97	5.26	5.86	6.43	5.68	4.50	4.11	3.83	3.93	4.08	4.34	4.50	4.50	4.89	5.13	5.06	5.07	5.30	5.57	5.73	5.92	6.06	5.99	5.77	5.53	5.36	5.25	5.25	
4.71	4.91	5.47	5.89	5.76	5.39	5.32	5.76	6.21	6.48	6.49	6.34	6.03	5.86	5.49	4.88	4.58	4.59	5.23	5.86	6.10	6.14	6.18	6.28	6.22	6.16	6.36	6.40	6.13	5.97	5.97	5.91	5.85	5.92	6.01	6.12	6.48	6.78	7.00	7.19	7.08	6.84	6.66	6.96	7.26	7.31	7.11	6.72	6.44	6.87	7.19	7.36	7.31	7.35	7.32	6.93	6.45	5.99	5.97	6.15	6.49	7.12	7.38	7.37	7.45	7.25	6.78	6.01	5.03	4.52	4.58	4.85	4.81	4.51	4.22	4.25	4.30	4.18	4.29	4.50	4.71	5.06	6.31	7.05	6.50	6.05	6.33	6.54	6.38	5.95	6.00	6.07	5.87	5.92	5.60	5.18	5.32	5.02	4.53	4.53	4.97	5.26	5.86	6.43	5.68	4.50	4.11	3.83	3.93	4.08	4.34	4.50	4.50	4.89	5.13	5.06	5.07	5.30	5.57	5.73	5.92	6.06	5.99	5.77	5.53	5.36	5.25	5.25	
4.13	3.80	3.87	4.61	4.97	4.85	4.51	4.47	4.84	5.20	5.33	5.43	5.17	5.18	5.26	5.03	4.87	4.71	4.63	4.78	5.05	5.25	5.33	5.45	5.41	5.07	5.11	5.45	5.38	5.17	5.12	5.14	5.01	4.99	5.12	5.23	5.16	4.98	5.47	5.96	6.22	6.37	6.04	5.50	5.52	5.86	5.82	6.04	5.78	5.86	6.02	5.81	5.61	5.96	6.33	6.57	6.44	5.78	5.63	5.66	5.49	5.94	6.43	6.31	6.30	6.32	6.23	6.01	5.56	5.15	4.90	4.97	5.03	4.88	4.62	4.52	4.47	4.42	4.62	4.84	5.11	5.17	5.51	6.38	6.42	6.02	6.22	6.53	6.73	6.52	6.15	5.70	5.01	5.24	5.96	5.98	5.86	5.57	5.04	4.62	4.77	4.97	5.16	6.03	6.24	5.51	5.02	4.37	3.99	3.84	3.93	4.17	4.21	4.41	4.68	4.82	4.96	5.12	5.27	5.19	5.08	5.13	5.20	5.21	5.23	5.29	5.32	5.32	
4.53	3.89	3.29	3.67	4.51	4.95	4.54	4.02	4.13	4.32	4.37	4.71	4.84	4.89	5.11	5.20	5.06	4.66	4.30	4.28	4.41	4.39	4.30	4.39	4.59	4.42	4.27	4.55	4.79	4.79	4.68	4.71	4.71	4.61	4.57	4.46	4.22	4.09	4.41	4.61	4.78	5.20	5.21	4.75	4.89	5.23	4.80	4.98	4.86	4.73	4.95	4.66	4.60	4.82	4.90	5.74	6.60	5.91	5.21	5.34	4.94	4.76	5.17	4.96	4.89	5.42	5.92	6.10	5.99	5.73	5.29	5.11	5.28	5.34	5.17	5.01	4.94	5.03	5.31	5.40	5.12	4.55	4.62	5.84	6.51	6.22	5.98	5.92	6.32	6.68	6.58	6.26	5.25	4.95	5.79	6.26	6.44	6.11	5.72	5.22	4.70	4.50	4.56	5.51	6.51	6.83	6.71	6.02	4.88	4.14	4.06	4.13	4.13	4.19	4.34	4.60	4.83	4.89	4.95	4.92	4.77	4.76	4.85	4.87	4.94	5.11	5.21	5.21	
4.94	5.04	4.65	4.11	4.27	4.65	4.62	4.34	4.30	4.32	4.24	4.30	4.58	4.66	4.60	4.73	4.72	4.48	4.36	4.39	4.39	4.26	4.16	4.20	4.32	4.35	4.23	4.24	4.36	4.54	4.54	4.53	4.64	4.64	4.58	4.42	4.30	4.31	4.45	4.43	4.34	4.57	4.72	4.51	4.85	5.68	5.42	5.03	4.82	4.55	4.71	4.76	5.10	5.00	4.12	4.32	6.21	6.48	5.18	5.12	5.12	4.91	5.15	5.32	5.35	5.54	6.09	6.44	6.33	6.18	5.80	5.30	5.26	5.23	5.06	5.05	4.99	4.69	4.52	4.68	4.31	3.92	4.17	5.01	5.97	6.07	5.83	5.39	5.58	6.38	7.01	7.12	6.67	6.23	5.89	5.81	6.34	6.23	5.86	5.66	5.13	4.37	4.31	5.17	5.75	6.31	6.84	7.06	6.27	5.01	4.88	4.80	4.75	4.89	4.62	4.45	4.75	4.98	4.93	4.78	4.77	5.07	5.33	5.20	4.97	4.97	5.00	5.00	
4.08	4.66	4.92	4.12	3.63	3.67	3.67	3.77	3.96	4.14	4.30	4.15	4.08	4.25	4.29	4.39	4.54	4.45	4.31	4.28	4.35	4.35	4.32	4.35	4.35	4.28	4.21	4.20	4.23	4.29	4.33	4.33	4.37	4.39	4.41	4.34	4.23	4.12	4.22	4.38	4.40	4.66	4.70	4.15	4.06	4.92	5.45	5.55	5.55	5.25	4.94	4.96	5.38	5.55	4.71	3.61	4.54	6.50	5.76	4.72	4.81	5.18	5.49	5.78	6.04	5.77	5.83	6.40	6.65	6.74	6.43	5.90	5.86	5.83	5.45	4.84	4.00	3.75	3.87	4.22	4.45	4.01	3.39	3.42	4.33	5.07	5.56	5.14	4.87	5.31	6.02	6.07	5.68	5.99	6.12	6.03	6.12	6.18	6.29	6.43	6.22	5.15	4.24	4.73	5.26	5.29	5.83	6.95	7.02	5.37	4.67	4.74	4.99	5.60	5.59	4.91	4.98	5.47	5.65	5.10	4.41	4.61	5.08	5.24	5.25	5.14	5.01	5.01	
3.82	4.23	4.77	4.56	4.06	3.73	3.54	3.63	3.88	4.12	4.43	4.61	4.46	4.35	4.42	4.45	4.47	4.45	4.39	4.41	4.47	4.49	4.44	4.44	4.50	4.50	4.45	4.44	4.47	4.48	4.47	4.46	4.45	4.41	4.37	4.33	4.26	4.08	3.84	3.85	3.92	4.28	4.71	4.53	4.36	4.47	4.70	4.99	5.21	5.40	5.10	5.00	5.18	5.48	5.68	4.55	3.83	5.47	6.36	5.13	4.45	4.76	4.70	4.55	5.29	5.39	5.45	5.83	6.12	6.65	6.61	6.21	6.36	6.65	6.81	6.12	4.64	4.50	4.98	5.13	4.75	3.84	2.96	2.65	3.20	4.29	5.18	4.78	4.05	4.05	5.04	5.21	4.60	4.88	5.46	6.02	6.17	5.69	5.49	5.94	6.35	6.08	5.09	4.90	5.76	5.92	5.81	6.68	7.48	6.79	5.52	4.80	4.42	4.84	5.72	5.76	5.55	5.84	6.45	6.48	5.28	4.66	4.89	4.93	5.00	4.99	4.90	4.90	
4.09	4.38	4.84	5.14	5.28	4.94	4.45	4.17	4.07	4.13	4.32	4.64	4.87	4.79	4.73	4.67	4.54	4.48	4.41	4.35	4.31	4.37	4.45	4.47	4.47	4.45	4.45	4.44	4.42	4.39	4.36	4.32	4.28	4.23	4.17	4.09	4.01	3.94	3.76	3.57	3.51	3.67	4.11	4.42	4.59	4.64	4.45	4.38	4.42	4.55	4.66	4.83	4.89	4.96	5.40	5.31	4.63	4.75	6.00	5.63	4.05	3.70	3.82	4.01	4.64	4.53	4.70	5.03	5.29	6.16	6.39	5.70	5.38	5.51	6.03	6.65	6.19	5.51	4.81	4.66	4.84	4.88	4.53	3.73	3.74	4.48	5.51	5.58	4.70	4.22	5.20	5.49	5.11	5.00	5.16	5.61	6.21	6.07	5.12	4.82	5.16	5.63	5.30	5.04	5.77	6.25	5.86	6.04	6.92	7.57	7.56	6.66	5.45	4.58	4.60	5.04	5.19	5.27	5.72	6.62	6.50	5.74	5.79	5.74	5.51	5.26	5.05	5.05	
4.09	4.46	4.84	4.82	5.18	5.44	5.16	4.77	4.49	4.38	4.38	4.45	4.64	4.77	4.77	4.72	4.59	4.52	4.54	4.51	4.34	4.27	4.37	4.49	4.54	4.52	4.54	4.55	4.53	4.44	4.33	4.28	4.19	4.07	4.11	4.16	4.10	4.19	4.36	4.20	3.95	3.82	3.88	4.13	4.34	4.47	4.36	4.30	4.40	4.29	4.22	4.54	4.69	4.77	4.88	4.92	4.94	4.73	5.16	5.39	4.42	3.50	3.11	3.63	4.37	4.18	3.94	4.03	4.22	5.21	5.75	5.55	5.27	4.75	4.52	4.83	4.77	4.75	4.46	4.58	5.36	5.98	6.20	5.54	4.72	4.78	5.73	6.55	6.37	5.49	5.59	5.73	5.70	5.69	5.45	5.37	5.79	6.59	6.32	5.32	4.92	5.27	5.22	4.67	4.78	5.47	5.93	6.24	6.31	6.46	7.25	7.30	6.62	5.92	5.09	4.72	4.85	4.87	4.96	5.74	6.40	6.26	6.17	6.34	6.39	6.21	6.02	6.02	
3.92	4.24	4.75	4.62	4.51	4.74	4.90	4.87	4.69	4.48	4.36	4.30	4.25	4.32	4.47	4.54	4.54	4.51	4.53	4.64	4.58	4.39	4.36	4.49	4.57	4.54	4.53	4.55	4.50	4.30	4.07	4.12	4.27	4.23	4.34	4.53	4.49	4.34	4.42	4.54	4.45	4.29	4.10	3.99	4.00	4.08	3.99	3.91	4.15	4.38	4.19	4.06	4.23	4.54	4.73	4.62	4.56	4.66	5.07	5.33	5.57	5.13	3.45	3.03	3.69	4.09	3.78	3.62	3.97	5.01	5.28	5.64	6.48	6.52	5.89	4.88	4.55	5.08	5.75	5.91	5.34	4.92	5.27	5.29	4.80	4.62	5.02	5.76	6.50	6.16	5.54	5.31	5.19	5.71	5.78	5.19	5.08	5.85	6.72	6.24	5.60	5.59	5.37	4.64	4.39	4.66	5.05	5.56	5.42	5.06	5.81	6.25	5.62	5.53	5.53	5.13	5.15	5.42	5.33	5.40	5.55	5.55	5.40	5.15	5.08	5.67	6.23	6.23	
3.81	4.03	4.61	4.77	4.60	4.52	4.48	4.51	4.54	4.48	4.38	4.33	4.29	4.29	4.38	4.47	4.50	4.47	4.40	4.46	4.57	4.49	4.40	4.46	4.52	4.49	4.55	4.78	5.00	4.95	4.64	4.56	4.72	4.72	4.63	4.56	4.44	4.26	4.14	4.14	4.16	4.19	4.15	4.04	4.01	4.07	3.97	3.74	3.80	4.24	4.50	4.29	4.15	4.36	4.45	4.68	5.10	5.47	6.21	6.57	7.00	7.55	6.55	4.75	4.39	4.93	4.97	5.03	5.25	6.21	6.12	5.08	6.00	7.31	7.94	7.17	6.18	5.93	5.64	5.48	5.19	4.89	4.79	4.78	4.75	4.59	4.49	4.60	5.41	5.84	5.04	5.09	5.07	5.23	5.87	5.52	4.66	4.71	5.99	6.23	5.39	5.00	5.22	5.15	4.74	4.36	4.33	5.07	5.30	4.62	5.14	6.39	5.90	5.01	5.03	4.98	4.94	5.09	4.98	5.04	5.06	4.88	4.93	4.82	4.45	4.78	5.37	5.37	
3.68	3.73	4.11	4.40	4.41	4.38	4.33	4.33	4.39	4.45	4.45	4.40	4.27	4.26	4.33	4.37	4.44	4.50	4.44	4.37	4.41	4.36	4.27	4.35	4.43	4.37	4.34	4.63	5.19	5.61	5.55	5.31	5.06	4.69	4.39	4.29	4.24	4.14	4.08	3.94	3.85	4.03	4.17	4.11	4.11	4.25	4.19	3.83	3.48	3.51	4.01	4.50	4.49	4.40	4.21	4.42	5.13	5.68	6.06	6.32	6.48	7.29	8.24	7.79	7.04	6.81	6.83	6.67	5.86	5.88	6.79	5.40	4.57	5.43	7.44	7.81	6.17	5.24	5.23	5.23	5.26	5.52	5.32	4.90	4.79	4.62	4.51	4.53	5.23	5.93	4.89	4.83	5.43	5.40	5.65	5.79	4.86	4.25	5.07	5.50	4.95	4.76	5.26	5.89	5.84	5.33	5.10	5.54	6.13	5.40	4.67	5.94	6.87	6.23	5.51	4.97	4.76	4.76	4.57	4.61	4.72	4.68	4.80	4.90	4.99	5.08	5.13	5.13	
3.72	3.68	3.89	4.14	4.21	4.28	4.32	4.34	4.40	4.46	4.49	4.54	4.38	4.23	4.35	4.44	4.47	4.54	4.56	4.50	4.54	4.51	4.37	4.44	4.54	4.46	4.30	4.09	4.20	4.70	4.92	4.87	4.80	4.69	4.43	4.32	4.38	4.32	4.39	4.35	4.15	4.24	4.45	4.35	4.26	4.37	4.40	4.17	3.76	3.28	3.15	3.55	3.98	4.23	4.11	4.16	4.34	4.43	4.49	4.61	4.77	5.05	6.17	7.20	6.83	6.00	5.93	6.36	5.73	5.27	6.49	6.27	4.82	4.55	6.20	7.69	6.77	5.32	5.43	5.65	5.25	5.43	5.54	5.10	4.86	4.81	4.73	4.60	5.23	6.11	5.13	4.47	5.12	5.64	5.56	5.65	5.01	4.47	5.36	6.00	5.73	5.44	5.22	5.65	6.21	6.01	5.38	5.11	5.91	6.19	5.03	4.74	5.87	6.29	5.93	5.36	5.20	5.34	5.13	5.09	4.94	4.94	5.23	5.04	5.16	5.37	5.31	5.31	
3.97	3.74	3.75	4.07	4.21	4.31	4.35	4.27	4.29	4.48	4.58	4.75	4.78	4.48	4.39	4.51	4.55	4.57	4.66	4.65	4.67	4.71	4.44	4.30	4.37	4.27	4.21	3.96	3.64	3.77	4.09	4.34	4.62	4.86	4.58	4.21	4.13	4.07	4.31	4.50	4.34	4.34	4.51	4.52	4.47	4.63	4.82	5.01	5.10	4.72	4.18	3.96	4.14	4.41	4.36	4.36	4.52	4.51	4.41	4.46	4.57	4.73	5.06	5.77	5.92	5.07	4.76	5.45	5.63	5.67	6.39	6.43	5.26	4.35	5.27	7.08	7.35	6.15	5.55	5.84	5.66	5.43	5.46	5.24	5.06	5.12	5.03	4.64	5.15	6.25	5.81	4.63	4.68	5.65	6.04	6.33	5.43	4.30	4.84	5.62	5.41	5.06	5.01	5.25	5.66	5.90	5.65	5.34	5.66	6.34	6.22	5.50	5.39	5.67	5.70	5.22	4.98	5.29	5.40	5.77	5.85	5.74	6.20	5.95	5.18	4.97	4.97	4.97	
4.54	4.16	3.81	3.96	4.20	4.36	4.51	4.47	4.32	4.44	4.57	4.69	4.88	4.78	4.53	4.50	4.57	4.54	4.60	4.70	4.72	4.75	4.49	4.17	4.11	3.88	3.75	3.79	3.78	3.86	4.01	4.19	4.59	5.02	4.92	4.75	4.73	4.49	4.52	4.58	4.50	4.75	4.95	5.02	5.14	5.38	5.71	6.05	6.39	6.50	6.27	5.98	5.78	5.55	5.00	4.45	4.55	4.89	4.88	4.63	4.48	4.63	4.82	5.33	5.89	5.33	4.65	4.53	4.60	5.04	5.74	6.37	5.73	4.20	4.31	5.91	6.76	6.54	5.97	5.81	5.87	5.69	5.48	5.27	5.12	5.35	5.67	5.37	5.38	6.28	6.47	5.32	4.88	5.51	5.84	6.66	6.38	4.60	3.97	4.29	4.36	4.41	4.80	5.09	5.05	5.28	5.35	5.07	5.01	5.30	5.76	5.89	5.55	5.41	5.57	5.36	5.15	5.49	5.64	5.81	6.02	5.87	6.16	6.58	5.96	5.34	5.27	5.27	
4.78	4.38	3.96	3.90	4.00	4.15	4.37	4.50	4.38	4.33	4.35	4.37	4.47	4.51	4.46	4.47	4.59	4.62	4.55	4.55	4.68	4.87	4.93	4.93	4.89	4.56	4.13	3.80	3.85	4.05	4.12	4.09	4.55	5.40	5.82	6.12	6.23	6.10	5.99	5.94	5.87	5.98	6.04	6.03	6.11	6.08	6.03	5.97	5.89	5.96	5.73	5.42	5.35	5.28	4.82	4.32	4.35	4.83	5.09	4.69	3.96	3.82	4.08	4.61	5.41	5.47	5.13	4.43	4.13	4.38	4.43	5.31	5.94	4.86	4.12	4.87	5.67	5.84	5.76	5.53	5.63	5.72	5.55	5.28	4.96	5.06	5.67	5.87	5.52	5.91	6.60	6.03	5.21	5.08	5.12	6.00	6.83	6.28	5.65	5.33	4.74	4.34	4.48	4.95	4.87	4.85	5.05	4.88	4.75	4.76	4.93	5.32	5.39	5.29	5.57	5.86	5.81	5.71	5.61	5.55	5.36	4.99	5.23	6.22	6.67	6.23	5.91	5.91	
4.94	4.28	3.71	3.65	3.65	3.78	4.01	4.24	4.25	4.23	4.22	4.23	4.26	4.30	4.36	4.46	4.61	4.70	4.64	4.54	4.65	4.96	5.10	5.21	5.52	5.77	5.64	4.96	4.62	4.80	4.95	5.08	5.44	5.88	5.99	6.04	6.11	6.17	6.40	6.44	6.32	6.23	6.06	5.86	5.82	5.56	5.13	4.98	4.77	4.94	5.00	4.86	5.02	5.06	4.70	4.33	4.30	4.68	5.11	4.90	4.41	4.30	4.39	4.64	5.04	5.44	5.82	5.19	4.54	4.46	4.27	4.79	5.54	5.62	4.95	4.67	5.14	5.44	5.57	5.47	5.48	5.58	5.49	5.30	4.91	4.56	4.80	5.40	5.26	5.25	5.87	5.92	5.55	5.38	5.40	5.87	6.77	7.12	7.02	6.84	6.04	4.86	4.59	5.18	5.21	4.97	5.07	5.11	5.01	4.96	5.08	5.41	5.65	5.54	5.32	5.22	5.18	5.03	4.86	5.02	5.09	4.84	4.89	5.15	5.67	6.14	6.14	6.14	
5.40	4.98	4.36	4.05	3.87	3.83	4.00	4.16	4.20	4.24	4.28	4.27	4.21	4.22	4.27	4.30	4.38	4.48	4.56	4.55	4.51	4.61	4.72	4.78	5.14	5.75	6.32	6.50	6.37	6.26	6.19	5.99	5.56	5.22	4.92	4.95	5.22	5.16	5.27	5.29	5.01	5.30	5.38	4.99	4.91	4.86	4.56	4.49	4.49	4.78	5.00	4.93	5.31	5.54	5.08	4.43	4.07	4.34	4.97	5.01	4.88	5.01	5.16	5.20	5.06	5.15	5.87	5.87	5.33	4.89	4.55	4.95	5.15	5.48	5.61	5.23	5.19	5.31	5.47	5.44	5.41	5.48	5.46	5.33	5.06	4.66	4.51	4.89	5.09	5.22	5.53	5.75	5.91	5.89	5.80	5.64	5.85	6.21	6.30	6.43	6.37	5.48	4.85	5.15	5.26	5.10	5.03	5.07	5.04	4.94	4.90	5.03	5.25	5.24	5.08	4.96	4.93	4.84	4.63	4.72	4.92	4.79	4.82	4.75	4.84	5.63	6.01	6.01	
5.13	5.25	5.29	5.09	4.86	4.49	4.33	4.39	4.34	4.34	4.44	4.42	4.17	4.08	4.23	4.29	4.29	4.33	4.37	4.34	4.30	4.40	4.66	4.87	4.90	4.89	5.01	5.28	5.30	5.16	4.94	4.63	4.44	4.29	4.09	4.07	4.32	4.17	4.13	4.44	4.28	4.32	4.58	4.47	4.56	4.85	4.80	4.61	4.48	4.69	5.01	4.87	5.11	5.54	5.36	4.81	4.18	4.21	4.86	5.17	5.23	5.23	5.22	5.36	5.34	5.14	5.48	5.93	5.87	5.32	4.58	4.81	5.08	5.04	5.28	5.38	5.38	5.32	5.39	5.43	5.42	5.43	5.43	5.37	5.23	5.03	4.84	4.88	5.07	5.49	5.89	5.90	5.87	5.57	5.35	5.40	5.27	5.57	5.79	5.75	5.85	5.44	4.97	5.01	5.10	5.09	5.10	5.12	5.10	5.01	4.85	4.72	4.74	4.78	4.80	4.82	4.85	4.80	4.65	4.55	4.51	4.36	4.56	4.90	4.94	5.35	5.73	5.73	
4.56	4.64	4.83	4.90	4.90	4.71	4.43	4.41	4.39	4.36	4.56	4.73	4.42	4.08	4.14	4.28	4.33	4.33	4.39	4.42	4.47	4.64	4.70	4.70	4.61	4.45	4.27	4.10	3.98	4.02	4.03	4.07	4.28	4.42	4.42	4.23	4.05	3.87	3.76	4.11	4.35	4.21	4.36	4.45	4.50	4.88	5.16	5.02	4.68	4.59	4.83	4.78	4.84	5.33	5.50	5.35	4.81	4.41	4.75	5.07	5.24	5.47	5.26	5.03	5.31	5.26	5.11	5.58	5.90	5.69	4.95	4.70	5.10	5.11	5.02	5.16	5.37	5.45	5.47	5.50	5.51	5.51	5.50	5.47	5.37	5.25	5.15	5.03	4.86	4.94	5.41	5.59	5.69	5.53	5.21	5.37	5.27	5.38	5.67	5.67	5.62	5.39	5.16	5.10	5.10	5.09	5.11	5.14	5.11	5.03	4.94	4.81	4.69	4.63	4.62	4.60	4.58	4.57	4.52	4.47	4.46	4.32	4.21	4.48	4.74	5.05	5.33	5.33	
4.45	4.23	3.97	4.01	4.14	4.20	4.21	4.27	4.32	4.25	4.32	4.64	4.58	4.13	4.13	4.32	4.44	4.44	4.56	4.77	4.80	4.58	4.23	4.10	4.09	4.12	4.22	4.36	4.32	4.21	4.17	4.23	4.30	4.22	4.32	4.53	4.36	4.11	3.96	4.10	4.53	4.53	4.53	4.67	4.60	4.69	5.04	5.22	5.02	4.81	4.81	4.76	4.73	5.00	5.09	5.11	5.17	4.68	4.45	4.69	4.86	5.32	5.44	5.12	5.25	5.28	4.84	5.11	5.61	5.70	5.26	4.74	4.89	5.12	5.10	5.12	5.24	5.36	5.48	5.56	5.58	5.58	5.55	5.51	5.45	5.37	5.29	5.17	4.91	4.63	4.73	4.97	5.19	5.31	5.17	5.15	5.05	5.03	5.22	5.38	5.42	5.32	5.23	5.19	5.17	5.14	5.13	5.10	5.09	5.05	4.95	4.81	4.64	4.51	4.49	4.49	4.47	4.49	4.44	4.38	4.38	4.43	4.43	4.35	4.31	4.57	4.81	4.81	
4.62	4.33	3.88	3.81	3.95	4.01	4.04	4.16	4.22	4.21	4.21	4.40	4.53	4.24	4.16	4.32	4.49	4.57	4.52	4.44	4.44	4.43	4.07	3.82	3.95	4.02	3.93	3.97	4.19	4.30	4.17	4.01	4.00	3.93	3.95	4.39	4.66	4.51	4.26	4.12	4.39	4.43	4.22	4.40	4.58	4.61	4.76	5.07	5.19	5.06	5.08	5.12	4.97	4.94	4.92	4.84	5.05	4.92	4.49	4.54	4.84	5.03	5.04	5.15	5.40	5.48	4.90	4.72	5.15	5.19	5.28	5.00	4.89	4.98	5.08	5.21	5.33	5.39	5.47	5.58	5.62	5.64	5.64	5.61	5.55	5.47	5.38	5.30	5.15	4.90	4.76	4.78	4.84	4.89	4.91	4.96	5.00	4.99	5.04	5.15	5.21	5.23	5.19	5.15	5.12	5.06	5.02	4.97	4.94	5.00	5.09	5.19	5.11	4.95	4.89	4.79	4.70	4.74	4.68	4.56	4.52	4.59	5.03	5.31	4.83	4.42	4.41	4.41	
4.97	4.72	4.43	4.32	4.32	4.29	4.11	4.07	4.10	4.19	4.34	4.47	4.52	4.40	4.29	4.22	4.26	4.33	4.30	4.31	4.35	4.56	4.40	3.92	3.94	4.08	4.05	3.94	3.97	4.26	4.42	4.42	4.29	4.06	3.87	4.07	4.41	4.39	4.23	4.12	4.37	4.57	4.34	4.33	4.55	4.72	4.69	4.78	5.02	4.87	4.81	5.03	5.22	5.20	5.13	5.08	5.11	5.07	4.69	4.61	5.07	5.42	5.04	4.97	5.45	5.75	5.50	5.05	5.11	5.21	5.34	5.25	5.11	5.07	5.07	5.23	5.45	5.54	5.57	5.64	5.69	5.72	5.72	5.70	5.64	5.58	5.51	5.43	5.33	5.21	5.11	5.04	5.00	4.98	4.94	4.96	5.07	5.10	5.07	5.03	4.95	4.89	4.94	5.00	5.00	4.99	4.99	4.97	4.93	4.95	4.97	5.16	5.31	5.23	5.30	5.25	5.11	5.11	5.05	4.89	4.85	4.69	4.85	5.60	5.88	5.05	4.44	4.44	
5.02	4.83	4.57	4.39	4.17	4.01	3.95	3.93	3.90	3.94	4.18	4.49	4.42	4.26	4.45	4.45	4.18	4.13	4.13	4.26	4.33	4.48	4.62	4.15	3.87	3.98	4.13	4.21	4.13	4.14	4.23	4.37	4.40	4.17	3.86	3.86	4.11	4.19	4.16	4.12	4.40	4.73	4.58	4.49	4.52	4.68	4.75	4.84	5.11	5.08	4.93	4.98	5.24	5.25	5.01	4.94	5.14	5.22	4.84	4.67	5.04	5.69	5.52	5.01	5.28	5.56	5.58	5.44	5.40	5.53	5.50	5.38	5.26	5.18	5.11	5.20	5.43	5.61	5.70	5.75	5.78	5.79	5.80	5.81	5.75	5.68	5.62	5.55	5.47	5.37	5.26	5.15	5.11	5.11	5.09	5.08	5.11	5.18	5.19	5.02	4.89	4.70	4.73	5.02	5.15	5.16	5.03	5.05	5.16	5.14	4.84	4.59	4.66	4.48	4.48	4.73	4.78	4.92	5.06	4.76	4.51	4.31	4.22	4.73	5.66	5.68	5.22	5.22	
4.83	4.55	4.13	4.09	4.06	3.67	3.52	3.56	3.55	3.53	3.67	4.18	4.40	4.10	4.19	4.54	4.31	4.11	4.17	4.19	4.10	4.07	4.48	4.46	4.14	4.18	4.20	4.17	4.17	4.16	4.15	4.24	4.34	4.18	3.88	3.76	3.88	4.06	4.15	4.09	4.24	4.62	4.60	4.52	4.62	4.61	4.49	4.66	5.09	5.19	5.05	5.09	5.28	5.28	5.10	4.97	5.13	5.36	5.05	4.72	4.78	5.36	5.62	5.25	5.27	5.46	5.50	5.55	5.64	5.73	5.65	5.43	5.29	5.23	5.18	5.28	5.48	5.67	5.80	5.88	5.92	5.92	5.91	5.91	5.85	5.76	5.68	5.63	5.57	5.53	5.43	5.21	5.09	5.16	5.23	5.34	5.36	5.33	5.59	5.67	5.43	5.00	4.80	5.03	5.30	5.49	5.22	5.03	5.15	5.38	5.40	5.07	5.16	5.01	4.45	4.48	4.56	4.61	4.87	4.90	4.58	4.19	4.03	4.25	4.76	5.23	5.38	5.38	
5.05	4.95	4.41	4.20	4.37	4.07	3.76	3.59	3.47	3.32	3.22	3.50	3.97	3.95	3.76	4.15	4.29	3.93	3.99	4.30	4.31	4.08	4.30	4.54	4.37	4.27	4.23	4.04	3.89	4.04	4.22	4.40	4.60	4.41	4.02	3.84	3.79	3.85	3.99	4.11	4.17	4.38	4.53	4.51	4.76	4.84	4.45	4.34	4.69	4.97	4.94	5.09	5.43	5.45	5.25	5.12	5.23	5.46	5.26	4.93	4.87	5.19	5.50	5.44	5.46	5.63	5.75	5.84	5.93	5.98	5.88	5.56	5.28	5.21	5.26	5.44	5.69	5.88	6.00	6.04	6.04	5.99	5.99	6.03	5.97	5.86	5.79	5.70	5.59	5.64	5.77	5.57	5.15	5.05	5.08	5.21	5.55	5.49	5.51	5.97	5.86	5.16	4.93	5.16	5.41	5.66	5.42	4.99	4.96	5.33	5.68	5.61	5.87	6.28	6.00	5.52	5.26	5.22	5.18	5.19	5.13	4.72	4.21	4.08	4.34	4.63	4.78	4.78	
4.78	5.13	5.22	5.05	5.17	4.92	4.52	4.15	3.78	3.40	3.08	3.10	3.38	3.81	3.99	4.25	4.50	4.09	3.91	4.16	4.30	4.13	4.19	4.40	4.32	4.26	4.31	4.24	3.93	3.82	3.88	3.98	4.37	4.67	4.50	4.25	4.22	4.20	4.04	4.12	4.24	4.24	4.34	4.34	4.63	4.97	4.78	4.54	4.67	4.93	4.86	4.94	5.37	5.58	5.39	5.14	5.21	5.57	5.60	5.32	5.20	5.29	5.47	5.55	5.65	5.82	5.97	6.13	6.28	6.33	6.22	5.81	5.34	5.21	5.40	5.71	5.99	6.15	6.20	6.21	6.16	6.06	5.97	5.95	5.93	5.88	5.87	5.89	5.69	5.49	5.69	5.88	5.48	4.99	4.91	4.80	5.18	5.40	5.12	5.81	6.33	5.60	5.05	5.29	5.90	6.26	6.09	5.70	5.45	5.50	5.71	5.72	5.85	6.47	7.11	7.06	6.50	6.25	6.01	5.55	5.17	4.80	4.50	4.24	4.46	4.70	4.62	4.62	
4.35	4.66	5.26	5.79	6.18	6.10	5.53	4.76	4.06	3.69	3.35	3.15	3.05	3.33	3.93	4.42	4.81	4.60	4.27	4.32	4.42	4.16	4.06	4.27	4.26	4.25	4.37	4.54	4.46	4.15	3.98	3.82	3.86	4.23	4.40	4.21	4.05	4.14	4.04	4.02	4.25	4.26	4.21	4.15	4.35	4.76	4.76	4.53	4.57	4.88	4.93	4.90	5.21	5.52	5.59	5.40	5.25	5.46	5.64	5.52	5.47	5.53	5.64	5.69	5.77	5.96	6.16	6.37	6.64	6.82	6.73	6.24	5.59	5.37	5.74	6.16	6.40	6.48	6.34	6.22	6.16	6.13	6.03	5.93	5.96	5.95	6.02	6.07	5.94	5.57	5.35	5.65	5.66	5.04	4.74	4.48	4.67	5.28	5.02	5.42	6.51	6.44	5.52	5.18	5.70	6.51	6.98	6.93	6.66	6.59	6.52	6.44	6.41	6.30	6.63	7.18	7.16	6.98	6.83	6.57	5.91	5.03	4.71	4.43	4.44	4.62	4.54	4.54	
4.40	4.69	4.84	4.88	5.52	6.11	6.32	6.00	5.29	4.96	4.65	4.14	3.66	3.22	3.17	3.54	4.28	4.47	4.37	4.45	4.67	4.50	4.11	4.14	4.19	4.22	4.27	4.42	4.70	4.79	4.80	4.47	4.04	4.07	4.18	4.19	4.11	4.05	3.99	3.95	4.17	4.26	4.16	4.12	4.20	4.55	4.71	4.49	4.34	4.58	4.92	5.06	5.23	5.39	5.52	5.50	5.32	5.35	5.48	5.53	5.59	5.68	5.77	5.83	5.86	5.96	6.16	6.35	6.68	7.06	7.10	6.67	6.10	5.96	6.41	6.74	6.80	6.87	6.69	6.31	6.14	6.19	6.37	6.20	5.90	5.88	6.25	6.39	6.34	6.34	6.03	5.97	6.17	6.06	5.84	5.65	5.54	6.23	6.12	5.59	6.18	6.83	6.55	6.00	5.68	5.84	6.34	6.70	6.75	6.81	6.69	6.25	6.09	5.82	5.76	6.21	6.57	6.97	7.25	7.44	7.39	6.43	5.34	4.72	4.49	4.53	4.53	4.53	
3.87	4.27	4.34	3.84	3.92	4.53	5.43	6.19	6.32	6.17	5.86	5.55	5.12	4.27	3.52	3.33	3.76	4.07	4.04	3.98	4.16	4.33	4.14	4.09	4.09	4.13	4.17	4.07	4.17	4.35	4.71	4.92	4.61	4.46	4.38	4.25	4.23	4.13	3.94	3.86	4.09	4.33	4.23	4.15	4.21	4.46	4.73	4.73	4.54	4.38	4.53	4.87	5.21	5.33	5.33	5.35	5.30	5.32	5.43	5.53	5.64	5.78	5.89	5.99	5.99	5.95	6.16	6.36	6.61	7.02	7.02	6.56	7.15	6.59	7.20	7.49	7.17	7.22	7.37	6.93	6.28	5.59	5.77	6.22	5.78	5.50	6.23	6.99	7.24	7.40	7.58	7.48	7.27	7.29	7.35	7.24	6.93	6.92	7.03	6.65	6.41	6.57	6.58	6.39	5.98	5.54	5.45	5.60	5.59	5.66	5.89	5.65	5.30	5.09	5.14	5.40	5.52	5.83	6.35	6.74	7.35	7.48	6.51	5.59	5.21	4.99	4.87	4.87	
3.46	3.70	4.04	3.89	3.84	4.06	4.41	4.79	5.18	5.54	5.26	4.78	4.91	4.72	4.14	3.82	3.85	4.01	3.95	3.75	3.72	3.84	3.84	3.93	4.08	4.13	4.26	4.19	4.06	4.13	4.35	4.78	4.90	4.81	4.66	4.36	4.23	4.22	4.09	3.89	3.96	4.31	4.35	4.17	4.20	4.40	4.61	4.74	4.84	4.73	4.52	4.56	4.88	5.08	5.12	5.18	5.25	5.33	5.46	5.57	5.69	5.84	6.00	6.22	6.40	6.24	6.30	6.48	6.59	6.93	6.66	5.87	5.92	6.40	7.19	8.03	7.55	7.22	7.66	7.82	7.35	6.04	5.69	6.63	6.71	5.94	5.87	6.44	6.84	6.87	7.01	7.27	6.90	6.41	6.24	6.22	6.13	5.97	6.08	6.18	6.14	6.11	6.00	5.91	5.88	5.68	5.41	5.25	5.17	5.21	5.39	5.46	5.20	4.80	4.72	4.87	4.96	5.02	5.36	5.77	6.28	7.23	7.43	6.84	6.36	5.69	5.22	5.22	
3.56	3.78	4.21	4.47	4.70	4.90	4.67	4.05	3.98	4.71	4.84	4.13	4.14	4.49	4.27	3.94	3.87	4.07	4.26	4.28	4.28	4.22	4.01	3.84	4.01	4.21	4.38	4.49	4.38	4.28	4.26	4.35	4.51	4.73	4.80	4.51	4.32	4.29	4.24	4.05	3.78	3.93	4.27	4.17	4.08	4.31	4.46	4.50	4.63	4.75	4.67	4.58	4.74	4.96	5.02	5.07	5.18	5.29	5.42	5.57	5.74	5.93	6.09	6.27	6.65	6.51	6.37	6.65	6.79	7.01	6.63	5.66	5.64	6.03	6.17	7.65	8.03	7.21	7.30	8.02	8.47	8.00	7.19	6.84	6.94	6.38	5.52	5.29	5.42	5.48	5.64	6.20	6.39	5.99	5.71	5.71	5.63	5.52	5.45	5.42	5.46	5.56	5.61	5.54	5.45	5.32	5.22	5.07	5.05	5.21	5.32	5.45	5.44	5.19	4.94	4.77	4.80	4.83	4.96	5.28	5.47	6.06	6.77	6.72	6.43	6.16	5.88	5.88	
4.01	4.20	4.49	4.44	4.25	4.48	4.93	4.52	4.03	4.58	5.18	5.01	4.56	4.32	4.18	3.96	3.90	4.06	4.29	4.39	4.45	4.48	4.34	3.99	3.70	3.70	3.91	4.21	4.31	4.15	4.13	4.16	4.01	4.19	4.63	4.53	4.20	4.11	4.14	4.21	3.99	3.71	4.01	4.18	3.93	4.07	4.27	4.21	4.19	4.30	4.44	4.55	4.75	4.94	4.97	4.98	5.09	5.23	5.38	5.52	5.72	5.92	6.03	6.08	6.63	6.83	6.26	6.32	6.92	7.15	6.49	5.20	5.28	5.99	5.44	6.50	8.14	8.00	7.33	7.40	7.74	7.76	7.39	6.61	6.28	6.09	5.67	5.48	5.51	5.53	5.72	6.00	6.25	6.29	5.95	5.75	5.62	5.54	5.54	5.42	5.23	5.16	5.26	5.49	5.65	5.59	5.64	5.52	5.31	5.36	5.55	5.59	5.47	5.24	5.02	4.79	4.70	4.71	4.70	4.83	4.87	5.00	5.37	5.50	5.46	5.85	6.28	6.28	
3.97	4.11	4.33	4.11	3.74	3.75	4.36	4.63	4.23	4.27	4.70	4.87	4.87	4.62	4.38	4.09	3.91	3.98	4.10	4.12	4.02	4.05	4.20	4.21	4.00	3.73	3.65	3.82	4.14	4.24	4.26	4.39	4.19	4.00	4.38	4.73	4.52	4.18	4.08	4.19	4.28	3.94	3.79	4.09	3.97	3.80	3.96	4.01	4.00	4.07	4.19	4.37	4.70	5.06	4.81	4.82	5.01	5.15	5.25	5.50	5.87	6.23	6.43	6.26	6.77	7.88	7.69	7.52	9.25	9.17	7.46	5.53	5.10	5.96	5.62	5.51	6.90	8.05	7.79	7.24	7.03	7.15	7.30	6.97	6.63	6.32	6.09	6.08	6.12	6.01	5.94	5.96	5.92	6.05	6.03	5.89	5.77	5.72	5.90	6.04	5.93	5.77	5.68	5.90	6.37	6.63	6.68	6.61	6.39	6.08	6.09	6.15	5.93	5.55	5.28	5.02	4.68	4.61	4.66	4.72	4.73	4.77	4.90	5.13	5.11	5.43	6.04	6.04	
3.48	3.62	4.11	4.34	4.22	4.19	4.23	4.19	3.99	3.92	4.02	4.21	4.50	4.57	4.58	4.38	4.04	4.00	4.15	4.31	4.35	4.29	4.32	4.39	4.40	4.30	4.02	3.86	3.96	4.01	4.05	4.17	4.20	4.05	4.09	4.47	4.63	4.33	4.00	3.90	4.09	4.03	3.62	3.73	3.93	3.83	3.85	3.93	3.95	4.01	4.11	4.26	4.51	4.71	4.64	4.68	5.04	5.54	5.73	5.99	6.63	7.24	7.91	8.01	8.31	9.79	10.67	10.80	11.56	10.34	8.54	7.08	5.75	5.60	5.55	5.05	5.29	6.60	7.50	7.48	6.97	6.83	7.05	6.94	6.87	6.74	6.39	6.08	5.87	5.77	5.76	5.85	5.86	5.75	5.80	6.09	6.31	6.23	6.22	6.40	6.45	6.41	6.22	5.87	5.69	5.86	6.10	6.22	6.41	6.37	6.27	6.45	6.57	6.43	6.22	5.87	5.22	4.74	4.66	4.70	4.68	4.78	4.89	4.98	4.97	5.28	5.75	5.75	
3.52	3.41	3.59	4.05	4.29	4.49	4.69	4.32	3.86	3.98	3.98	4.04	4.31	4.25	4.27	4.41	4.23	4.08	4.21	4.44	4.63	4.55	4.29	4.16	4.03	4.01	3.97	3.86	3.85	3.78	3.89	4.00	3.93	3.90	3.90	4.11	4.39	4.36	4.09	3.79	3.89	4.11	3.81	3.65	3.81	3.87	3.90	3.93	3.93	3.96	4.05	4.16	4.32	4.45	4.49	4.56	4.83	5.57	6.19	6.46	7.18	8.09	9.29	10.25	10.35	10.39	10.49	10.23	9.61	8.29	7.16	6.61	5.70	4.97	5.00	5.08	5.21	5.91	6.78	7.15	6.75	6.32	6.45	6.50	6.34	6.32	6.19	5.95	5.74	5.64	5.67	5.70	5.83	5.78	5.45	5.43	5.81	5.92	5.87	5.91	5.88	5.85	5.80	5.53	5.18	5.03	5.13	5.25	5.42	5.71	5.77	5.92	6.17	6.22	6.32	6.38	6.18	5.51	4.91	4.76	4.62	4.66	4.94	5.15	5.12	5.25	5.45	5.45	
3.81	3.62	3.45	3.57	3.87	4.23	4.74	4.69	4.12	4.13	4.08	3.92	4.18	4.29	4.08	4.10	4.18	4.11	4.14	4.17	4.21	4.26	4.03	3.98	4.07	3.93	3.78	3.70	3.84	3.84	3.91	4.17	4.09	3.89	3.78	3.86	4.08	4.23	4.28	4.03	3.78	4.01	4.02	3.79	3.79	3.81	3.84	3.89	3.89	3.90	3.95	4.03	4.14	4.28	4.36	4.50	4.71	5.23	6.29	7.25	8.26	9.20	9.69	9.80	9.31	8.89	8.92	8.75	8.10	7.42	6.67	6.10	5.69	4.99	4.74	5.08	5.62	6.32	6.62	6.38	6.09	5.88	5.83	5.97	5.90	5.81	5.85	5.82	5.76	5.68	5.65	5.61	5.63	5.76	5.55	5.18	5.23	5.33	5.39	5.54	5.55	5.38	5.32	5.42	5.34	5.15	5.09	5.06	4.95	5.09	5.22	5.37	5.64	5.69	5.81	5.93	6.08	5.90	5.55	5.49	5.38	5.04	4.99	5.33	5.49	5.43	5.34	5.34	
4.02	3.91	3.73	3.54	3.54	3.91	4.67	4.99	4.41	4.08	4.05	3.81	3.76	4.00	4.08	4.06	4.08	4.06	3.96	3.83	3.77	4.03	4.05	3.99	4.27	4.31	4.14	3.90	3.87	3.89	3.83	3.99	4.04	3.91	3.74	3.63	3.76	3.98	4.13	4.16	3.84	3.73	3.89	3.83	3.78	3.79	3.77	3.79	3.80	3.79	3.80	3.83	3.85	4.02	4.22	4.40	4.83	5.51	6.40	7.42	8.30	8.77	8.82	8.67	8.26	8.18	8.47	8.43	7.82	7.26	6.87	6.21	5.72	5.31	4.91	4.92	5.56	7.30	7.30	5.84	5.42	5.40	5.44	5.60	5.73	5.69	5.70	5.71	5.64	5.60	5.64	5.65	5.59	5.59	5.54	5.32	5.16	5.10	5.09	5.20	5.31	5.26	5.17	5.28	5.34	5.21	5.09	5.05	4.98	5.07	5.11	5.13	5.39	5.48	5.55	5.80	6.00	6.03	6.00	5.97	6.00	5.68	5.17	5.16	5.45	5.70	5.79	5.79	
4.06	3.99	3.88	3.74	3.53	3.53	4.16	5.02	4.84	4.21	4.05	4.00	3.87	3.83	3.96	4.06	4.02	3.94	3.96	3.91	3.70	3.86	4.02	3.90	3.97	4.02	4.07	3.98	3.76	3.72	3.76	3.84	3.81	3.87	3.98	3.87	3.77	3.84	3.87	4.02	4.07	3.84	3.78	3.79	3.74	3.73	3.71	3.72	3.71	3.68	3.62	3.58	3.48	3.55	3.82	3.92	4.04	4.45	4.91	5.15	5.65	6.61	7.78	8.79	8.66	8.08	7.98	7.74	7.31	6.88	6.59	6.02	5.27	4.94	4.87	5.01	5.59	6.61	6.53	5.60	5.21	5.21	5.38	5.47	5.58	5.63	5.62	5.65	5.64	5.56	5.53	5.54	5.55	5.52	5.45	5.41	5.26	5.10	5.03	5.08	5.22	5.22	5.14	5.13	5.23	5.25	5.18	5.12	5.04	5.08	5.13	5.10	5.27	5.37	5.33	5.69	6.10	6.10	5.80	5.45	5.48	5.56	5.31	5.19	5.13	5.24	5.50	5.50	
4.11	4.06	3.99	3.89	3.69	3.46	3.65	4.58	5.26	5.02	4.58	4.44	4.44	4.26	4.03	4.02	3.99	3.92	4.06	4.30	4.13	3.96	3.91	3.79	3.83	3.79	3.82	3.99	3.82	3.58	3.71	3.98	3.91	3.81	3.93	3.91	3.74	3.75	3.77	3.76	3.86	3.84	3.76	3.71	3.68	3.67	3.65	3.63	3.61	3.55	3.45	3.31	3.04	2.93	3.27	3.60	3.59	3.58	3.87	4.25	4.90	6.04	7.34	8.49	8.61	7.66	7.19	7.08	6.84	6.53	6.22	5.60	4.94	4.72	4.92	5.42	5.99	6.45	6.35	5.83	5.45	5.31	5.43	5.55	5.60	5.66	5.63	5.63	5.64	5.61	5.53	5.42	5.46	5.50	5.39	5.39	5.36	5.22	5.14	5.19	5.30	5.30	5.25	5.13	5.06	5.11	5.15	5.09	4.96	4.93	4.96	5.03	5.21	5.37	5.21	5.06	5.18	5.41	5.43	5.16	5.07	5.22	5.34	5.34	5.26	5.17	5.13	5.13	
4.12	4.09	4.03	3.96	3.83	3.61	3.51	3.89	4.74	5.30	5.15	4.72	4.54	4.46	4.22	4.08	4.07	4.00	4.06	4.37	4.43	4.17	3.94	3.89	4.03	4.03	3.90	4.11	4.23	3.90	3.72	3.94	4.01	3.82	3.75	3.74	3.67	3.61	3.62	3.60	3.59	3.61	3.62	3.62	3.60	3.59	3.56	3.54	3.51	3.44	3.32	3.22	2.82	2.31	2.39	2.87	3.37	3.67	4.02	4.55	5.17	6.17	7.64	8.08	7.77	7.06	6.43	6.21	6.04	5.81	5.47	4.69	4.85	5.34	5.63	6.12	6.58	6.62	6.33	6.01	5.83	5.71	5.69	5.75	5.74	5.72	5.67	5.66	5.67	5.72	5.81	5.73	5.65	5.70	5.58	5.47	5.46	5.33	5.21	5.25	5.33	5.28	5.27	5.21	5.06	5.05	5.13	5.10	5.00	4.97	4.90	4.90	5.03	5.19	5.20	5.00	4.93	5.12	5.37	5.35	5.18	5.13	5.33	5.55	5.72	5.79	5.72	5.72	
4.15	4.12	4.07	4.01	3.92	3.76	3.50	3.42	3.72	4.34	4.82	4.63	4.33	4.22	4.16	4.10	4.13	4.16	4.16	4.30	4.45	4.30	3.99	3.93	4.10	4.12	3.83	3.79	3.98	3.95	3.66	3.59	3.76	3.81	3.78	3.69	3.62	3.54	3.48	3.49	3.49	3.47	3.46	3.47	3.47	3.47	3.45	3.43	3.40	3.33	3.11	2.99	2.83	2.16	1.84	2.15	2.75	3.46	4.06	4.55	5.11	6.43	10.12	9.09	6.84	6.29	5.87	5.60	5.30	5.03	5.01	5.17	5.70	6.21	6.47	6.62	6.77	6.59	6.03	5.65	5.79	5.83	5.75	5.72	5.76	5.75	5.67	5.62	5.70	5.80	5.90	5.87	5.78	5.77	5.71	5.60	5.59	5.52	5.29	5.18	5.26	5.25	5.25	5.33	5.22	5.17	5.27	5.26	5.15	5.13	4.99	4.82	4.77	4.83	5.06	5.13	5.12	5.24	5.44	5.59	5.49	5.20	5.12	5.34	5.43	5.57	5.77	5.77	
4.15	4.13	4.09	4.04	3.98	3.89	3.71	3.47	3.35	3.57	4.16	4.42	4.30	4.14	4.11	4.12	4.17	4.15	4.04	4.10	4.36	4.55	4.30	3.87	3.88	4.01	3.88	3.80	3.77	3.81	3.77	3.67	3.62	3.66	3.73	3.65	3.55	3.51	3.47	3.42	3.40	3.38	3.36	3.35	3.34	3.34	3.32	3.30	3.27	3.27	3.03	2.63	2.54	2.14	1.85	2.27	2.85	3.39	4.01	4.74	5.54	6.61	8.14	7.74	6.36	5.80	5.47	5.27	5.13	4.91	5.04	5.69	6.23	6.48	6.64	6.63	6.60	6.48	5.79	5.04	5.81	5.98	5.91	5.76	5.69	5.73	5.73	5.65	5.59	5.65	5.77	5.75	5.65	5.62	5.61	5.53	5.46	5.47	5.38	5.21	5.23	5.34	5.38	5.51	5.43	5.22	5.28	5.39	5.28	5.20	5.15	4.99	4.86	4.82	5.01	5.17	5.14	5.19	5.29	5.42	5.49	5.31	5.08	5.08	5.15	5.33	5.54	5.54	
4.16	4.14	4.11	4.07	4.02	3.96	3.87	3.73	3.55	3.49	3.74	4.11	4.23	4.13	4.03	3.99	4.02	3.99	3.84	3.79	3.90	4.21	4.35	4.08	3.92	3.90	3.82	3.87	3.90	3.81	3.76	3.76	3.65	3.53	3.54	3.54	3.49	3.45	3.44	3.41	3.37	3.32	3.28	3.25	3.24	3.21	3.18	3.15	3.12	3.13	3.07	2.64	2.18	1.74	1.59	2.25	3.03	3.62	4.19	4.94	5.81	6.67	7.20	6.92	6.17	5.65	5.35	5.15	5.16	5.26	5.36	5.77	6.24	6.33	6.39	6.53	6.49	6.31	5.88	5.60	5.81	5.91	5.94	5.91	5.81	5.80	5.81	5.71	5.54	5.45	5.54	5.65	5.65	5.61	5.61	5.55	5.42	5.33	5.27	5.12	5.08	5.24	5.36	5.48	5.50	5.32	5.26	5.40	5.41	5.27	5.32	5.37	5.35	5.24	5.20	5.32	5.27	5.21	5.24	5.29	5.31	5.21	5.10	5.09	5.20	5.38	5.49	5.49	
4.16	4.15	4.12	4.09	4.06	4.01	3.96	3.90	3.82	3.72	3.70	3.85	4.01	4.04	3.95	3.80	3.73	3.74	3.71	3.64	3.58	3.64	3.83	3.90	3.90	3.86	3.72	3.66	3.68	3.64	3.53	3.53	3.54	3.49	3.46	3.46	3.45	3.43	3.40	3.37	3.33	3.28	3.22	3.17	3.12	3.06	2.99	2.92	2.81	2.70	2.66	2.41	1.84	1.77	1.44	2.30	3.11	3.84	4.51	5.22	6.00	6.68	7.00	6.82	6.29	5.75	5.33	5.06	4.98	5.13	5.36	5.63	5.97	6.17	6.24	6.33	6.26	6.02	5.72	5.57	5.64	5.67	5.73	5.91	5.94	5.88	5.80	5.64	5.49	5.37	5.32	5.41	5.54	5.57	5.58	5.59	5.48	5.34	5.25	5.02	4.76	4.80	4.94	5.15	5.34	5.33	5.25	5.29	5.43	5.41	5.39	5.41	5.42	5.33	5.22	5.28	5.27	5.19	5.16	5.20	5.22	5.17	5.11	5.11	5.17	5.31	5.42	5.42	
4.17	4.15	4.13	4.11	4.08	4.05	4.01	3.97	3.94	3.91	3.88	3.88	3.92	3.95	3.90	3.78	3.68	3.66	3.67	3.65	3.62	3.58	3.55	3.55	3.64	3.70	3.64	3.58	3.56	3.54	3.47	3.44	3.47	3.48	3.45	3.43	3.38	3.35	3.31	3.29	3.26	3.21	3.15	3.07	2.99	2.91	2.79	2.61	2.39	2.16	2.01	1.73	1.51	2.57	1.71	2.51	3.21	3.88	4.59	5.31	5.99	6.51	6.75	6.64	6.27	5.81	5.40	5.14	5.06	5.09	5.25	5.50	5.74	5.93	6.04	6.09	6.00	5.80	5.62	5.57	5.68	5.71	5.59	5.59	5.59	5.58	5.61	5.54	5.44	5.37	5.30	5.24	5.27	5.32	5.35	5.43	5.50	5.46	5.45	5.30	4.83	4.63	4.66	4.71	4.83	4.93	5.03	5.14	5.26	5.33	5.31	5.27	5.28	5.24	5.14	5.12	5.16	5.15	5.13	5.14	5.19	5.20	5.16	5.16	5.19	5.28	5.36	5.36	
4.17	4.15	4.14	4.12	4.09	4.07	4.04	4.02	4.00	3.98	3.96	3.95	3.93	3.91	3.88	3.83	3.75	3.70	3.70	3.71	3.71	3.69	3.63	3.57	3.57	3.61	3.59	3.57	3.58	3.56	3.51	3.47	3.45	3.44	3.41	3.38	3.33	3.28	3.23	3.19	3.15	3.10	3.04	2.96	2.87	2.76	2.61	2.38	2.11	1.81	1.47	1.09	1.10	1.51	1.83	2.46	3.15	3.84	4.54	5.18	5.72	6.14	6.34	6.27	6.02	5.72	5.45	5.23	5.13	5.16	5.26	5.43	5.63	5.75	5.78	5.81	5.79	5.67	5.55	5.51	5.60	5.68	5.54	5.39	5.35	5.34	5.41	5.45	5.42	5.38	5.34	5.29	5.26	5.28	5.29	5.35	5.56	5.73	5.86	5.90	5.51	5.10	5.04	4.97	4.80	4.75	4.79	4.92	5.03	5.09	5.12	5.12	5.14	5.15	5.11	5.10	5.11	5.14	5.17	5.18	5.19	5.18	5.17	5.17	5.18	5.25	5.33	5.33	
4.17	4.16	4.14	4.12	4.11	4.08	4.06	4.04	4.02	4.01	3.99	3.97	3.95	3.92	3.89	3.85	3.80	3.73	3.69	3.68	3.70	3.72	3.69	3.63	3.60	3.61	3.59	3.56	3.54	3.52	3.49	3.45	3.42	3.38	3.34	3.31	3.28	3.23	3.17	3.10	3.04	2.98	2.92	2.86	2.76	2.62	2.45	2.25	1.97	1.60	1.13	0.78	0.94	1.17	1.47	2.13	2.91	3.63	4.29	4.86	5.31	5.63	5.82	5.85	5.74	5.56	5.40	5.27	5.21	5.25	5.36	5.49	5.61	5.67	5.64	5.61	5.58	5.49	5.37	5.28	5.27	5.36	5.42	5.36	5.29	5.27	5.32	5.39	5.40	5.38	5.36	5.36	5.36	5.40	5.41	5.38	5.47	5.69	5.98	6.26	6.23	5.86	5.66	5.67	5.40	4.97	4.78	4.77	4.84	4.91	4.95	5.00	5.05	5.08	5.09	5.11	5.11	5.10	5.11	5.12	5.14	5.15	5.14	5.17	5.17	5.20	5.26	5.26	
4.16	4.15	4.14	4.13	4.11	4.09	4.08	4.06	4.04	4.02	4.01	3.99	3.97	3.94	3.91	3.89	3.85	3.80	3.75	3.70	3.67	3.68	3.68	3.65	3.62	3.61	3.59	3.56	3.53	3.51	3.47	3.43	3.38	3.34	3.29	3.24	3.20	3.15	3.10	3.04	2.96	2.89	2.83	2.75	2.63	2.48	2.30	2.10	1.84	1.46	0.92	0.50	0.66	0.62	0.97	1.81	2.67	3.43	4.06	4.58	4.99	5.26	5.42	5.49	5.46	5.36	5.26	5.19	5.18	5.23	5.31	5.42	5.54	5.64	5.62	5.56	5.49	5.40	5.26	5.13	5.08	5.08	5.18	5.27	5.28	5.25	5.28	5.34	5.36	5.37	5.36	5.35	5.37	5.44	5.49	5.46	5.42	5.38	5.46	5.70	5.89	5.77	5.50	5.53	5.55	5.15	4.81	4.76	4.85	4.94	4.97	5.02	5.05	5.07	5.07	5.08	5.08	5.07	5.09	5.11	5.13	5.15	5.13	5.10	5.06	5.04	5.04	5.04	
4.16	4.15	4.14	4.13	4.11	4.10	4.08	4.07	4.05	4.03	4.02	4.00	3.98	3.95	3.93	3.90	3.86	3.83	3.79	3.75	3.71	3.69	3.68	3.66	3.63	3.60	3.59	3.56	3.53	3.49	3.45	3.42	3.38	3.33	3.26	3.20	3.13	3.07	3.00	2.93	2.87	2.81	2.76	2.68	2.54	2.35	2.15	1.94	1.70	1.36	0.74	0.56	0.78	0.14	0.98	1.84	2.63	3.31	3.90	4.38	4.73	4.96	5.07	5.10	5.08	5.07	5.12	5.18	5.21	5.26	5.33	5.37	5.41	5.44	5.43	5.38	5.30	5.19	5.03	4.96	5.06	5.14	5.21	5.42	5.56	5.48	5.34	5.27	5.22	5.21	5.24	5.26	5.22	5.25	5.35	5.35	5.29	5.18	5.11	5.23	5.41	5.40	5.26	5.30	5.49	5.38	5.07	4.86	4.94	5.03	5.02	5.02	5.02	5.03	5.04	5.07	5.08	5.06	5.05	5.05	5.05	5.05	5.11	5.14	5.09	4.94	4.85	4.85	
4.16	4.15	4.14	4.13	4.11	4.10	4.09	4.07	4.05	4.04	4.02	4.00	3.98	3.96	3.93	3.91	3.88	3.85	3.81	3.77	3.74	3.71	3.68	3.65	3.62	3.60	3.57	3.54	3.51	3.47	3.43	3.38	3.35	3.30	3.23	3.15	3.07	2.98	2.90	2.83	2.77	2.72	2.66	2.60	2.47	2.25	2.03	1.81	1.56	1.23	0.74	1.37	1.07	0.71	1.46	2.10	2.73	3.30	3.80	4.24	4.59	4.89	5.15	5.29	5.31	5.29	5.31	5.42	5.51	5.45	5.40	5.38	5.34	5.29	5.24	5.21	5.27	5.41	5.50	5.54	5.62	5.67	5.58	5.56	5.67	5.69	5.56	5.40	5.35	5.37	5.43	5.53	5.50	5.33	5.20	5.18	5.17	5.13	5.06	5.11	5.31	5.44	5.38	5.39	5.60	5.74	5.61	5.25	5.06	5.07	5.03	5.00	5.02	5.02	5.02	5.03	5.04	5.04	5.01	4.99	4.96	4.89	4.97	5.26	5.50	5.33	5.10	5.10	
4.15	4.14	4.13	4.12	4.11	4.10	4.09	4.07	4.05	4.04	4.02	4.00	3.98	3.96	3.94	3.91	3.88	3.85	3.82	3.78	3.75	3.72	3.69	3.66	3.62	3.59	3.56	3.53	3.49	3.45	3.40	3.34	3.28	3.23	3.18	3.10	3.01	2.93	2.85	2.77	2.69	2.60	2.54	2.58	2.51	2.21	1.96	1.72	1.43	1.05	0.58	0.15	0.45	1.33	1.94	2.43	2.88	3.33	3.79	4.28	4.76	5.17	5.58	5.93	6.08	6.00	5.74	5.50	5.44	5.40	5.36	5.36	5.37	5.38	5.46	5.59	5.81	6.17	6.40	6.41	6.30	6.19	5.97	5.66	5.60	5.81	6.08	6.17	6.08	6.02	5.95	5.88	5.88	5.78	5.49	5.26	5.20	5.17	5.14	5.11	5.23	5.49	5.64	5.57	5.57	5.72	5.71	5.48	5.24	5.15	5.10	5.01	4.98	4.98	4.97	4.96	4.96	5.00	5.02	5.06	5.09	4.93	4.75	4.95	5.34	5.46	5.42	5.42	
4.15	4.14	4.13	4.12	4.11	4.10	4.08	4.07	4.05	4.04	4.02	4.00	3.98	3.96	3.94	3.91	3.89	3.86	3.83	3.79	3.75	3.72	3.69	3.66	3.62	3.58	3.55	3.52	3.47	3.42	3.37	3.31	3.24	3.19	3.13	3.06	2.98	2.90	2.81	2.71	2.61	2.52	2.46	2.48	2.44	2.22	1.96	1.66	1.31	0.89	0.44	0.43	1.02	1.67	2.24	2.72	3.11	3.49	3.94	4.42	4.87	5.15	5.29	5.44	5.60	5.70	5.60	5.34	5.20	5.22	5.27	5.39	5.57	5.71	5.85	5.99	5.98	5.90	5.93	6.01	6.05	6.13	6.23	6.14	5.97	5.99	6.13	6.28	6.23	6.02	5.86	5.70	5.62	5.72	5.66	5.42	5.27	5.14	5.01	5.02	5.07	5.18	5.44	5.48	5.24	5.22	5.30	5.27	5.22	5.20	5.19	5.10	4.98	4.90	4.87	4.88	4.84	4.82	4.87	4.99	5.26	5.25	4.82	4.64	4.62	4.80	5.05	5.05	
4.15	4.14	4.13	4.12	4.11	4.10	4.08	4.07	4.05	4.04	4.02	4.00	3.98	3.96	3.94	3.91	3.89	3.86	3.83	3.80	3.76	3.74	3.70	3.66	3.62	3.58	3.54	3.50	3.46	3.41	3.36	3.30	3.24	3.17	3.11	3.04	2.97	2.88	2.79	2.69	2.59	2.51	2.46	2.45	2.40	2.23	1.97	1.65	1.29	0.93	0.71	0.87	1.33	1.84	2.34	2.85	3.28	3.62	3.90	4.16	4.39	4.55	4.59	4.61	4.71	4.86	5.02	5.08	5.12	5.18	5.25	5.40	5.64	5.77	5.73	5.58	5.38	5.21	5.17	5.22	5.31	5.42	5.67	5.92	5.81	5.57	5.39	5.36	5.44	5.44	5.41	5.41	5.34	5.31	5.37	5.35	5.30	5.21	4.96	4.83	4.89	4.87	4.92	5.07	5.09	5.04	5.06	5.05	5.05	5.12	5.20	5.23	5.20	5.12	4.99	4.95	4.92	4.78	4.73	4.73	4.99	5.24	4.91	4.74	4.77	4.66	4.68	4.68	
4.14	4.13	4.12	4.12	4.10	4.09	4.08	4.07	4.05	4.03	4.02	4.00	3.98	3.96	3.94	3.91	3.89	3.86	3.83	3.80	3.77	3.74	3.72	3.67	3.62	3.58	3.53	3.48	3.43	3.37	3.33	3.29	3.23	3.17	3.11	3.05	2.97	2.89	2.80	2.71	2.62	2.55	2.50	2.46	2.38	2.22	1.98	1.69	1.40	1.16	1.08	1.23	1.57	1.94	2.33	2.75	3.16	3.49	3.67	3.78	3.93	4.13	4.28	4.40	4.52	4.67	4.82	4.94	5.05	5.17	5.23	5.19	5.17	5.17	5.14	5.08	5.01	4.93	4.88	4.88	4.91	4.90	4.85	4.95	5.05	5.03	5.02	5.03	5.05	5.12	5.03	4.92	4.95	4.98	5.01	5.13	5.33	5.51	5.49	5.20	5.02	4.95	4.94	4.99	5.11	5.24	5.23	5.11	5.01	5.00	5.09	5.23	5.33	5.40	5.35	5.15	5.03	4.85	4.72	4.71	4.82	5.09	5.03	4.94	5.11	4.92	4.67	4.67	
4.14	4.13	4.12	4.11	4.10	4.09	4.08	4.06	4.05	4.03	4.01	4.00	3.98	3.96	3.93	3.91	3.89	3.86	3.83	3.80	3.76	3.73	3.70	3.67	3.63	3.59	3.55	3.51	3.46	3.39	3.33	3.29	3.25	3.19	3.13	3.05	2.98	2.91	2.83	2.74	2.66	2.59	2.53	2.47	2.37	2.22	2.02	1.80	1.58	1.43	1.41	1.55	1.79	2.06	2.35	2.68	3.00	3.32	3.56	3.73	3.89	4.07	4.24	4.39	4.54	4.68	4.81	4.90	4.93	4.99	5.04	4.98	4.90	4.86	4.85	4.90	4.94	4.90	4.84	4.80	4.80	4.82	4.77	4.68	4.69	4.74	4.83	4.91	4.86	4.93	5.02	4.97	5.06	5.28	5.31	5.30	5.45	5.54	5.60	5.53	5.31	5.11	5.13	5.18	5.14	5.29	5.46	5.37	5.21	5.16	5.10	5.06	5.04	5.14	5.37	5.37	5.22	5.01	4.75	4.73	4.89	5.11	5.14	4.88	4.88	4.79	4.57	4.57	
4.13	4.12	4.12	4.11	4.10	4.09	4.07	4.06	4.05	4.03	4.01	4.00	3.98	3.96	3.93	3.91	3.89	3.86	3.83	3.80	3.77	3.74	3.71	3.67	3.63	3.59	3.56	3.54	3.53	3.49	3.42	3.34	3.27	3.21	3.14	3.07	3.00	2.93	2.85	2.78	2.71	2.64	2.58	2.50	2.40	2.27	2.11	1.93	1.78	1.70	1.72	1.89	2.14	2.36	2.60	2.87	3.10	3.31	3.56	3.76	3.93	4.09	4.24	4.39	4.52	4.63	4.73	4.82	4.86	4.86	4.87	4.89	4.92	4.93	4.87	4.82	4.80	4.75	4.67	4.68	4.67	4.68	4.80	4.77	4.59	4.63	4.81	4.92	4.82	4.93	5.35	5.61	5.72	5.83	5.89	5.75	5.59	5.48	5.42	5.52	5.59	5.24	4.99	5.11	5.13	5.15	5.37	5.50	5.29	5.16	5.21	5.22	5.12	5.11	5.36	5.55	5.52	5.33	5.02	4.80	4.86	4.92	5.01	5.00	5.06	5.04	4.84	4.84	
4.13	4.12	4.12	4.11	4.10	4.09	4.07	4.06	4.04	4.03	4.01	3.99	3.97	3.95	3.93	3.91	3.89	3.86	3.83	3.81	3.78	3.75	3.73	3.69	3.65	3.60	3.56	3.51	3.48	3.46	3.41	3.35	3.29	3.23	3.17	3.10	3.03	2.96	2.90	2.83	2.77	2.71	2.64	2.56	2.47	2.35	2.23	2.10	2.00	1.95	1.98	2.14	2.40	2.63	2.81	3.01	3.23	3.39	3.57	3.77	3.94	4.09	4.23	4.37	4.50	4.61	4.70	4.78	4.85	4.90	4.96	4.97	5.00	5.04	5.01	4.90	4.82	4.74	4.54	4.45	4.50	4.58	4.82	5.13	4.99	4.75	4.85	5.24	5.44	5.42	5.50	5.45	5.41	5.45	5.55	5.67	5.71	5.70	5.53	5.50	5.78	5.73	5.28	5.12	5.13	5.04	5.04	5.29	5.28	5.11	5.16	5.31	5.21	5.18	5.50	5.74	5.70	5.45	5.12	4.82	4.88	5.02	5.11	5.35	5.47	5.33	5.13	5.13	
4.13	4.12	4.11	4.11	4.09	4.08	4.07	4.06	4.04	4.03	4.01	3.99	3.97	3.95	3.93	3.91	3.89	3.86	3.84	3.81	3.78	3.74	3.72	3.71	3.67	3.63	3.58	3.53	3.48	3.44	3.40	3.36	3.31	3.26	3.20	3.14	3.07	3.01	2.94	2.88	2.82	2.76	2.70	2.63	2.55	2.46	2.36	2.27	2.21	2.18	2.18	2.24	2.40	2.63	2.82	2.99	3.22	3.43	3.61	3.79	3.96	4.10	4.23	4.36	4.47	4.57	4.65	4.71	4.78	4.84	4.95	4.96	4.95	5.04	5.12	5.09	5.09	5.05	4.89	4.73	4.71	4.87	5.03	5.46	5.74	5.48	5.28	5.52	5.72	5.59	5.49	5.33	5.16	5.16	5.23	5.37	5.59	5.80	5.78	5.70	5.91	6.21	6.10	5.76	5.59	5.43	5.21	5.20	5.19	5.07	5.00	5.08	5.03	4.89	5.25	5.73	5.97	5.88	5.59	5.28	5.21	5.38	5.30	5.17	5.31	5.40	5.34	5.34	
4.13	4.12	4.11	4.10	4.09	4.08	4.07	4.06	4.04	4.03	4.01	3.99	3.97	3.95	3.93	3.91	3.89	3.86	3.84	3.81	3.78	3.74	3.72	3.70	3.68	3.64	3.59	3.55	3.51	3.47	3.43	3.38	3.33	3.28	3.22	3.16	3.10	3.04	2.98	2.93	2.87	2.82	2.76	2.70	2.63	2.56	2.49	2.43	2.39	2.37	2.38	2.42	2.52	2.69	2.88	3.07	3.27	3.47	3.65	3.83	4.00	4.13	4.24	4.34	4.42	4.52	4.61	4.65	4.67	4.67	4.70	4.79	4.86	5.08	5.36	5.50	5.72	5.73	5.60	5.60	5.57	5.52	5.43	5.45	5.73	5.89	5.64	5.36	5.28	5.21	5.30	5.42	5.33	5.21	5.21	5.28	5.35	5.51	5.63	5.60	5.58	5.75	5.94	5.91	5.87	5.90	5.83	5.75	5.50	5.19	5.12	5.08	4.91	4.45	4.34	4.83	5.44	5.94	6.12	6.13	6.03	5.90	5.64	5.22	5.14	5.39	5.54	5.54	
4.12	4.12	4.11	4.10	4.09	4.08	4.07	4.06	4.04	4.03	4.01	3.99	3.97	3.95	3.93	3.91	3.89	3.87	3.84	3.81	3.78	3.75	3.72	3.69	3.67	3.64	3.59	3.56	3.52	3.47	3.43	3.39	3.35	3.30	3.25	3.19	3.14	3.08	3.03	2.98	2.93	2.88	2.83	2.78	2.72	2.67	2.62	2.58	2.56	2.56	2.58	2.64	2.74	2.86	3.02	3.18	3.35	3.51	3.66	3.81	3.97	4.12	4.24	4.33	4.40	4.46	4.53	4.60	4.62	4.64	4.68	4.73	4.69	4.84	5.27	5.51	5.77	6.06	5.96	5.64	5.47	5.33	5.13	5.01	4.96	5.02	4.94	4.83	4.85	4.90	4.94	5.09	5.20	5.16	5.08	5.06	5.11	5.14	5.19	5.21	5.20	5.27	5.37	5.36	5.30	5.43	5.64	5.89	6.04	5.98	5.91	5.74	5.36	4.83	4.54	4.71	5.13	5.47	5.48	5.38	5.50	5.68	5.76	5.43	5.03	5.23	5.56	5.56	
4.12	4.11	4.11	4.10	4.09	4.08	4.07	4.06	4.04	4.03	4.01	3.99	3.97	3.96	3.94	3.91	3.89	3.87	3.84	3.82	3.79	3.76	3.73	3.70	3.68	3.65	3.61	3.57	3.53	3.49	3.45	3.40	3.36	3.32	3.28	3.23	3.18	3.13	3.08	3.04	2.99	2.95	2.90	2.86	2.82	2.78	2.74	2.72	2.71	2.72	2.75	2.81	2.90	3.01	3.14	3.27	3.41	3.55	3.69	3.81	3.93	4.06	4.18	4.29	4.37	4.44	4.52	4.58	4.61	4.64	4.66	4.74	4.68	4.43	4.44	4.61	4.76	5.09	5.32	5.06	4.82	4.72	4.59	4.46	4.61	5.04	5.29	5.18	4.95	4.93	4.90	4.90	5.01	5.05	5.04	4.99	5.01	5.05	5.05	5.07	5.09	5.09	5.09	5.05	4.88	4.77	4.91	5.05	5.16	5.27	5.47	5.76	5.97	5.95	5.79	5.60	5.55	5.64	5.48	5.06	4.90	5.03	5.30	5.36	4.99	5.06	5.43	5.43	
4.12	4.11	4.11	4.10	4.09	4.08	4.07	4.06	4.04	4.03	4.01	3.99	3.98	3.96	3.94	3.92	3.90	3.87	3.85	3.82	3.80	3.77	3.74	3.70	3.68	3.66	3.62	3.58	3.55	3.51	3.47	3.43	3.39	3.35	3.31	3.27	3.23	3.18	3.13	3.09	3.05	3.01	2.98	2.95	2.92	2.89	2.86	2.84	2.85	2.87	2.90	2.96	3.03	3.13	3.24	3.36	3.48	3.60	3.73	3.84	3.94	4.05	4.15	4.27	4.37	4.44	4.49	4.56	4.61	4.67	4.66	4.65	4.68	4.50	4.26	4.15	4.13	4.43	4.89	4.82	4.71	4.85	4.97	4.83	4.65	4.87	5.33	5.58	5.46	5.33	5.21	5.07	5.00	5.00	5.02	5.04	5.04	5.03	5.03	5.03	5.06	5.05	5.08	5.32	5.41	5.19	5.12	5.20	5.16	5.13	5.26	5.52	5.78	5.83	5.70	5.47	5.23	5.39	5.71	5.60	5.30	5.10	5.15	5.46	5.35	5.23	5.43	5.43	
4.12	4.11	4.11	4.10	4.09	4.08	4.07	4.06	4.04	4.03	4.01	4.00	3.98	3.96	3.94	3.92	3.90	3.88	3.86	3.83	3.81	3.78	3.75	3.71	3.69	3.67	3.64	3.60	3.57	3.54	3.50	3.46	3.42	3.38	3.35	3.31	3.28	3.24	3.19	3.15	3.12	3.08	3.05	3.02	3.00	2.98	2.97	2.96	2.97	2.99	3.03	3.09	3.15	3.23	3.33	3.43	3.54	3.65	3.76	3.88	3.98	4.08	4.17	4.25	4.32	4.40	4.49	4.58	4.63	4.68	4.64	4.41	4.28	4.37	4.49	4.43	4.27	4.54	5.18	5.25	4.96	4.97	5.10	5.15	4.85	4.45	4.60	5.04	5.31	5.39	5.33	5.25	5.18	5.13	5.06	5.03	5.07	5.11	5.09	5.06	5.16	5.22	5.22	5.47	5.75	5.81	5.77	5.93	6.17	6.33	6.41	6.36	6.13	5.77	5.36	5.07	5.01	5.01	5.10	5.20	5.17	4.90	4.72	5.08	5.30	5.22	5.28	5.28	
4.12	4.11	4.11	4.10	4.09	4.08	4.07	4.06	4.04	4.03	4.01	4.00	3.98	3.96	3.94	3.93	3.90	3.88	3.86	3.84	3.81	3.79	3.76	3.73	3.70	3.70	3.66	3.62	3.59	3.56	3.53	3.49	3.46	3.42	3.39	3.35	3.32	3.28	3.25	3.21	3.18	3.15	3.13	3.10	3.08	3.07	3.06	3.07	3.08	3.10	3.14	3.19	3.26	3.33	3.42	3.51	3.60	3.70	3.80	3.90	4.00	4.09	4.18	4.25	4.32	4.36	4.37	4.45	4.59	4.75	4.84	4.51	3.82	3.47	3.84	4.43	4.62	4.72	5.26	5.74	5.59	5.34	5.20	5.18	5.19	4.95	4.75	4.82	4.97	5.16	5.26	5.20	5.11	5.10	5.09	5.05	5.05	5.14	5.25	5.31	5.44	5.41	5.12	5.04	5.20	5.37	5.39	5.33	5.26	5.24	5.43	5.68	6.01	6.19	5.91	5.28	5.08	5.19	5.05	4.93	5.21	5.00	4.37	4.52	5.01	5.05	4.91	4.91	
4.12	4.11	4.11	4.10	4.09	4.08	4.07	4.06	4.05	4.03	4.02	4.00	3.98	3.97	3.95	3.93	3.91	3.89	3.87	3.85	3.82	3.80	3.77	3.74	3.71	3.70	3.68	3.63	3.60	3.58	3.55	3.52	3.49	3.45	3.42	3.39	3.35	3.33	3.30	3.27	3.25	3.22	3.20	3.19	3.17	3.16	3.16	3.16	3.18	3.21	3.24	3.29	3.35	3.42	3.49	3.57	3.65	3.74	3.83	3.92	4.00	4.09	4.18	4.25	4.34	4.44	4.41	4.36	4.45	4.74	5.45	5.77	4.99	4.00	3.88	4.37	4.62	4.52	4.68	5.15	5.39	5.38	5.29	5.20	5.18	5.11	4.94	4.87	4.89	4.97	5.12	5.14	5.03	5.02	5.05	5.06	5.04	5.06	5.16	5.28	5.49	5.54	5.18	4.89	4.92	4.92	4.74	4.62	4.50	4.38	4.39	4.53	4.87	5.45	6.03	5.80	5.19	5.24	5.41	5.09	5.26	5.53	4.99	4.70	5.15	5.33	5.15	5.15	
4.12	4.12	4.11	4.10	4.09	4.09	4.07	4.06	4.05	4.04	4.02	4.00	3.99	3.97	3.95	3.94	3.92	3.90	3.88	3.85	3.83	3.81	3.78	3.75	3.72	3.71	3.70	3.66	3.62	3.60	3.57	3.54	3.51	3.47	3.45	3.42	3.40	3.37	3.35	3.32	3.30	3.28	3.26	3.25	3.25	3.24	3.24	3.25	3.27	3.29	3.33	3.37	3.42	3.48	3.55	3.62	3.69	3.78	3.87	3.95	4.03	4.10	4.17	4.24	4.32	4.47	4.57	4.39	4.26	4.27	4.86	5.99	6.48	6.36	5.78	5.35	5.11	4.71	4.53	4.68	4.83	4.94	4.99	5.00	4.97	4.93	4.85	4.74	4.69	4.71	4.87	5.10	5.12	5.04	5.00	5.02	5.06	5.08	5.04	4.95	5.10	5.39	5.28	4.99	4.97	5.05	4.80	4.47	4.40	4.51	4.49	4.34	4.37	4.53	5.01	5.47	5.24	5.12	5.32	5.08	4.95	5.35	5.23	4.92	5.19	5.45	5.43	5.43	
4.13	4.12	4.11	4.11	4.10	4.09	4.08	4.06	4.05	4.04	4.02	4.01	3.99	3.98	3.96	3.94	3.92	3.90	3.88	3.86	3.84	3.82	3.80	3.77	3.74	3.72	3.73	3.69	3.65	3.63	3.60	3.57	3.54	3.52	3.49	3.47	3.44	3.42	3.40	3.38	3.36	3.34	3.33	3.32	3.31	3.31	3.32	3.33	3.35	3.37	3.40	3.44	3.49	3.55	3.62	3.68	3.75	3.82	3.90	3.98	4.05	4.12	4.16	4.20	4.23	4.24	4.44	4.44	4.16	3.84	3.72	4.12	4.96	5.83	5.99	5.70	5.36	4.99	4.75	4.71	4.74	4.77	4.79	4.79	4.80	4.76	4.72	4.70	4.66	4.62	4.65	4.80	4.91	4.89	4.88	4.89	4.93	5.02	5.13	5.11	5.10	5.25	5.19	5.06	5.04	5.17	5.29	4.87	4.42	4.54	4.71	4.51	4.38	4.46	4.67	5.03	5.10	5.13	5.25	5.00	4.86	5.14	5.08	4.86	5.01	5.31	5.43	5.43	
4.13	4.12	4.11	4.11	4.10	4.09	4.08	4.07	4.06	4.04	4.03	4.01	4.00	3.98	3.97	3.95	3.93	3.91	3.89	3.87	3.85	3.83	3.81	3.79	3.76	3.73	3.73	3.71	3.67	3.64	3.63	3.61	3.59	3.56	3.53	3.51	3.48	3.46	3.44	3.43	3.41	3.40	3.39	3.38	3.38	3.38	3.39	3.40	3.42	3.45	3.48	3.52	3.56	3.61	3.68	3.73	3.79	3.85	3.92	3.99	4.08	4.22	4.34	4.34	4.32	4.31	4.42	4.58	4.39	3.99	3.81	3.82	4.00	4.41	4.77	5.01	5.06	4.89	4.83	4.81	4.79	4.78	4.76	4.72	4.75	4.74	4.67	4.66	4.63	4.57	4.51	4.55	4.69	4.73	4.70	4.72	4.72	4.71	4.84	5.06	5.28	5.47	5.34	5.11	5.07	5.06	5.36	5.39	4.82	4.62	4.79	4.70	4.45	4.55	4.84	5.04	5.05	5.18	5.62	5.40	4.94	5.10	4.90	4.49	4.68	5.13	5.35	5.35	
4.13	4.12	4.12	4.11	4.10	4.09	4.08	4.07	4.06	4.05	4.03	4.02	4.00	3.99	3.97	3.96	3.94	3.92	3.90	3.88	3.87	3.84	3.82	3.80	3.77	3.74	3.73	3.72	3.70	3.67	3.65	3.63	3.61	3.59	3.56	3.54	3.52	3.50	3.49	3.48	3.47	3.46	3.45	3.45	3.45	3.45	3.46	3.47	3.50	3.53	3.55	3.59	3.63	3.66	3.72	3.78	3.84	3.89	3.95	4.02	4.10	4.19	4.35	4.51	4.52	4.47	4.52	4.87	5.15	4.89	4.44	4.30	4.27	4.21	4.30	4.60	4.90	4.89	4.81	4.82	4.81	4.83	4.84	4.75	4.67	4.63	4.57	4.53	4.50	4.53	4.59	4.57	4.60	4.68	4.67	4.66	4.61	4.50	4.47	4.63	5.01	5.47	5.58	5.25	5.04	5.03	5.17	5.33	5.00	4.75	4.85	4.80	4.54	4.49	4.77	5.07	5.08	4.95	5.42	5.70	5.21	5.33	5.21	4.44	4.51	5.02	5.23	5.23	
4.13	4.12	4.12	4.11	4.11	4.10	4.09	4.08	4.06	4.05	4.04	4.02	4.01	4.00	3.98	3.96	3.95	3.93	3.91	3.90	3.88	3.86	3.84	3.82	3.79	3.77	3.75	3.74	3.73	3.70	3.67	3.65	3.64	3.62	3.60	3.58	3.57	3.55	3.54	3.53	3.52	3.52	3.51	3.51	3.51	3.52	3.53	3.54	3.56	3.59	3.62	3.64	3.68	3.72	3.77	3.82	3.88	3.94	3.98	3.98	4.01	4.12	4.24	4.50	4.81	4.89	4.94	5.22	5.53	5.59	5.16	4.63	4.43	4.39	4.33	4.38	4.58	4.78	4.90	4.91	4.94	4.99	4.96	4.84	4.76	4.68	4.65	4.67	4.59	4.55	4.68	4.74	4.65	4.61	4.62	4.69	4.76	4.62	4.45	4.36	4.48	4.85	5.30	5.38	5.08	5.06	5.27	5.34	5.15	5.05	5.16	5.21	5.01	4.70	4.68	4.92	4.98	4.73	4.95	5.55	5.39	5.45	5.78	5.07	4.62	4.99	5.22	5.22	
4.13	4.13	4.12	4.12	4.11	4.10	4.09	4.08	4.07	4.06	4.04	4.03	4.02	4.00	3.99	3.97	3.96	3.94	3.92	3.91	3.89	3.87	3.85	3.83	3.81	3.79	3.76	3.75	3.74	3.72	3.69	3.68	3.67	3.65	3.63	3.62	3.60	3.59	3.58	3.57	3.57	3.56	3.57	3.56	3.57	3.58	3.58	3.60	3.62	3.65	3.68	3.70	3.73	3.77	3.81	3.85	3.90	3.96	4.07	4.10	4.04	4.15	4.29	4.44	4.77	4.96	4.74	4.51	4.55	4.90	5.25	5.21	5.00	4.97	4.89	4.76	4.68	4.73	4.98	5.06	4.99	5.07	5.22	5.25	5.35	5.48	5.48	5.58	5.54	5.15	4.99	5.13	5.16	4.98	4.77	4.78	4.96	4.90	4.64	4.43	4.39	4.50	4.83	5.29	5.23	5.08	5.34	5.51	5.33	5.32	5.38	5.26	5.14	4.85	4.67	4.79	4.92	4.74	4.76	5.25	5.24	5.09	5.59	5.51	4.95	4.99	5.20	5.20	
4.14	4.13	4.13	4.12	4.11	4.10	4.10	4.08	4.07	4.06	4.05	4.04	4.02	4.01	4.00	3.98	3.97	3.95	3.93	3.92	3.90	3.88	3.87	3.85	3.83	3.81	3.79	3.77	3.76	3.76	3.74	3.71	3.70	3.69	3.67	3.65	3.64	3.64	3.62	3.62	3.62	3.61	3.61	3.61	3.62	3.63	3.64	3.64	3.66	3.69	3.72	3.75	3.78	3.81	3.85	3.89	3.93	3.96	4.08	4.25	4.20	4.11	4.17	4.18	4.17	4.27	4.19	4.01	3.95	4.00	4.43	4.96	5.08	5.11	5.19	5.16	5.04	4.78	4.73	4.84	4.78	4.77	4.99	5.23	5.44	5.69	5.79	5.83	5.97	5.85	5.43	5.29	5.49	5.63	5.41	5.05	5.03	5.13	5.01	4.78	4.66	4.61	4.66	4.99	5.19	5.10	5.21	5.38	5.20	5.20	5.41	5.31	5.07	4.87	4.82	4.90	5.04	4.91	4.76	5.05	5.20	4.97	5.07	5.15	4.94	5.03	5.21	5.21	
4.14	4.13	4.13	4.12	4.12	4.11	4.10	4.09	4.08	4.07	4.06	4.04	4.03	4.02	4.00	3.99	3.98	3.96	3.95	3.93	3.92	3.90	3.88	3.87	3.85	3.83	3.81	3.79	3.78	3.78	3.77	3.74	3.72	3.71	3.70	3.69	3.68	3.67	3.66	3.65	3.65	3.65	3.65	3.65	3.65	3.67	3.68	3.69	3.71	3.73	3.76	3.79	3.81	3.85	3.88	3.92	3.96	3.97	3.96	4.05	4.06	3.91	3.81	3.88	4.08	4.29	4.40	4.45	4.51	4.38	4.27	4.55	4.79	4.77	4.77	4.78	4.81	4.74	4.65	4.69	4.70	4.66	4.64	4.62	4.66	4.73	4.75	4.78	5.01	5.42	5.46	5.21	5.19	5.34	5.45	5.33	5.15	5.14	5.10	4.98	4.84	4.72	4.65	4.71	4.87	4.92	5.02	5.13	4.92	4.75	4.98	5.27	5.27	5.01	4.87	4.94	5.06	5.02	4.80	4.82	5.07	5.11	5.08	4.95	4.65	4.83	5.13	5.13	
4.14	4.14	4.13	4.13	4.12	4.11	4.10	4.10	4.08	4.07	4.06	4.05	4.04	4.03	4.01	4.00	3.99	3.97	3.96	3.94	3.93	3.91	3.90	3.88	3.87	3.85	3.83	3.81	3.79	3.78	3.78	3.77	3.76	3.75	3.73	3.72	3.71	3.70	3.70	3.69	3.68	3.69	3.69	3.69	3.70	3.71	3.73	3.74	3.76	3.78	3.80	3.83	3.86	3.89	3.92	3.95	3.97	3.98	3.96	4.01	4.08	4.04	3.90	3.87	4.07	4.30	4.45	4.54	4.72	4.79	4.62	4.65	4.88	5.01	5.00	4.91	4.79	4.79	4.81	4.76	4.69	4.77	4.76	4.50	4.30	4.26	4.27	4.37	4.54	4.87	5.23	5.18	5.07	5.01	4.99	5.11	5.08	5.06	4.96	4.85	4.85	4.77	4.71	4.70	4.72	4.71	4.78	4.89	4.82	4.72	4.71	4.84	5.02	4.97	4.82	4.83	4.94	4.99	4.93	4.80	4.92	5.20	5.46	5.51	4.98	4.73	4.88	4.88	
4.15	4.14	4.14	4.13	4.13	4.12	4.11	4.10	4.09	4.08	4.07	4.06	4.05	4.03	4.02	4.01	4.00	3.98	3.97	3.96	3.94	3.93	3.91	3.90	3.88	3.87	3.85	3.84	3.82	3.80	3.79	3.78	3.78	3.79	3.78	3.76	3.74	3.73	3.73	3.73	3.73	3.73	3.73	3.74	3.75	3.75	3.77	3.78	3.80	3.82	3.85	3.88	3.90	3.92	3.95	3.97	3.97	4.00	4.05	4.14	4.32	4.44	4.42	4.29	4.14	4.12	4.25	4.31	4.38	4.42	4.31	4.35	4.63	4.92	5.16	5.30	5.19	4.97	4.93	4.99	4.81	4.64	4.55	4.30	4.12	4.10	4.19	4.28	4.31	4.37	4.63	4.78	4.94	5.11	5.01	4.86	4.78	4.90	4.93	4.76	4.73	4.75	4.73	4.72	4.75	4.75	4.76	4.77	4.71	4.67	4.67	4.66	4.74	4.82	4.75	4.71	4.80	4.89	4.98	4.97	4.99	5.10	5.26	5.62	5.57	5.14	4.99	4.99	
4.15	4.15	4.14	4.14	4.13	4.12	4.12	4.11	4.10	4.09	4.08	4.07	4.05	4.04	4.03	4.02	4.01	3.99	3.98	3.97	3.95	3.94	3.93	3.91	3.90	3.89	3.87	3.86	3.84	3.83	3.81	3.80	3.78	3.78	3.80	3.80	3.78	3.77	3.77	3.76	3.76	3.77	3.77	3.77	3.78	3.79	3.81	3.82	3.84	3.86	3.88	3.91	3.93	3.96	3.98	4.00	4.01	4.02	4.05	4.06	4.08	4.13	4.13	4.17	4.19	4.09	4.11	4.26	4.42	4.48	4.34	4.21	4.33	4.44	4.49	4.73	4.90	4.76	4.48	4.52	4.52	4.34	4.19	3.87	3.74	3.75	3.79	3.94	4.01	4.00	4.19	4.44	4.62	4.83	4.99	4.92	4.60	4.49	4.64	4.63	4.59	4.64	4.68	4.69	4.73	4.76	4.75	4.71	4.65	4.51	4.38	4.33	4.36	4.51	4.68	4.65	4.58	4.61	4.78	4.93	4.95	4.92	4.83	5.06	5.39	5.36	5.28	5.28	
4.16	4.15	4.15	4.14	4.14	4.13	4.12	4.11	4.10	4.09	4.08	4.07	4.06	4.05	4.04	4.03	4.02	4.00	3.99	3.98	3.97	3.96	3.94	3.93	3.92	3.91	3.89	3.88	3.87	3.86	3.84	3.83	3.81	3.80	3.79	3.81	3.82	3.81	3.80	3.79	3.79	3.79	3.80	3.81	3.82	3.83	3.84	3.85	3.87	3.90	3.92	3.95	3.98	4.00	4.03	4.04	4.02	3.97	3.93	3.86	3.78	3.72	3.65	3.80	4.14	4.20	4.07	4.21	4.58	4.80	4.75	4.47	4.31	4.29	4.11	4.04	4.34	4.62	4.19	3.87	3.99	4.22	4.42	4.08	3.79	3.85	3.82	3.96	4.26	4.30	4.32	4.39	4.44	4.52	4.71	4.95	4.86	4.67	4.74	4.73	4.62	4.55	4.56	4.68	4.84	5.03	5.17	5.15	5.13	5.12	4.89	4.66	4.47	4.33	4.61	4.87	4.74	4.53	4.46	4.56	4.72	4.86	4.73	4.71	4.91	5.14	5.29	5.29	
4.16	4.15	4.15	4.15	4.14	4.13	4.13	4.12	4.11	4.10	4.09	4.08	4.07	4.06	4.05	4.04	4.03	4.02	4.00	3.99	3.98	3.97	3.96	3.95	3.93	3.92	3.91	3.90	3.89	3.88	3.87	3.86	3.85	3.84	3.83	3.82	3.82	3.83	3.84	3.84	3.83	3.83	3.84	3.85	3.85	3.87	3.88	3.89	3.90	3.92	3.95	3.98	4.02	4.05	4.09	4.16	4.08	3.90	3.86	3.83	3.85	3.94	3.87	3.87	4.18	4.49	4.39	4.12	4.12	4.30	4.50	4.52	4.44	4.53	4.66	4.59	4.94	5.48	5.00	4.46	4.30	4.55	5.24	5.40	5.03	5.03	4.95	4.62	4.62	4.70	4.63	4.58	4.57	4.58	4.74	5.07	5.17	4.99	4.93	4.86	4.74	4.63	4.50	4.55	4.67	4.85	5.22	5.63	5.79	5.90	5.96	5.77	5.46	4.91	4.79	5.26	5.50	5.24	4.73	4.37	4.44	4.77	4.83	4.79	4.85	5.03	5.22	5.22	
4.17	4.16	4.16	4.15	4.15	4.14	4.13	4.12	4.12	4.11	4.10	4.09	4.08	4.07	4.06	4.05	4.04	4.03	4.02	4.01	3.99	3.98	3.97	3.96	3.95	3.94	3.93	3.92	3.91	3.90	3.89	3.88	3.87	3.87	3.86	3.85	3.84	3.84	3.85	3.87	3.87	3.87	3.87	3.88	3.89	3.90	3.91	3.93	3.95	3.96	3.97	4.01	4.05	4.08	4.12	4.29	4.46	4.22	3.99	3.97	3.95	4.15	4.15	3.82	3.73	4.05	4.30	4.24	4.17	4.18	4.23	4.36	4.59	4.98	5.44	5.57	5.77	6.33	6.14	5.57	5.45	5.32	5.56	6.04	6.09	5.78	5.54	5.12	4.57	4.41	4.46	4.52	4.70	4.77	4.72	4.87	4.97	4.76	4.56	4.58	4.72	4.82	4.66	4.42	4.33	4.22	4.17	4.69	5.28	5.44	5.59	5.71	5.74	5.44	4.92	4.89	5.30	5.52	5.33	4.91	4.66	4.77	4.88	4.89	4.93	5.09	5.27	5.27	
4.17	4.16	4.16	4.16	4.15	4.15	4.14	4.13	4.12	4.11	4.11	4.10	4.09	4.08	4.07	4.06	4.05	4.04	4.03	4.02	4.01	4.00	3.99	3.98	3.97	3.96	3.95	3.94	3.93	3.92	3.91	3.91	3.90	3.89	3.89	3.88	3.88	3.87	3.87	3.88	3.90	3.91	3.90	3.90	3.92	3.92	3.93	3.94	3.97	4.00	4.01	4.05	4.09	4.13	4.15	4.24	4.60	4.70	4.36	4.13	3.87	3.94	4.21	4.05	3.81	3.90	4.22	4.44	4.52	4.50	4.40	4.19	3.94	4.02	4.42	4.60	4.70	5.63	6.28	6.02	5.88	5.60	5.08	5.03	5.56	5.75	5.65	5.69	5.19	4.66	4.71	4.63	4.58	4.67	4.55	4.55	4.78	4.92	4.64	4.38	4.41	4.56	4.74	4.82	4.85	4.88	4.52	4.10	4.33	4.73	4.96	5.11	5.18	5.13	4.84	4.58	4.73	5.05	5.19	5.02	4.87	4.91	4.84	4.77	4.77	4.94	5.16	5.16	
4.18	4.17	4.17	4.16	4.16	4.15	4.14	4.14	4.13	4.12	4.11	4.10	4.09	4.09	4.08	4.07	4.06	4.05	4.04	4.03	4.02	4.01	4.00	3.99	3.98	3.97	3.97	3.96	3.95	3.94	3.93	3.93	3.92	3.92	3.91	3.91	3.91	3.90	3.90	3.90	3.91	3.92	3.94	3.93	3.94	3.96	3.97	3.97	3.98	4.02	4.04	4.07	4.13	4.18	4.21	4.18	4.34	4.68	4.74	4.66	4.52	4.56	4.74	4.67	4.31	4.03	4.14	4.35	4.37	4.46	4.58	4.53	4.08	3.59	3.59	3.86	3.97	4.47	5.41	5.70	5.83	6.06	5.87	4.90	4.51	5.00	5.21	5.46	5.60	5.18	4.90	4.81	4.65	4.79	4.87	4.68	4.65	4.99	5.02	4.61	4.47	4.57	4.79	4.94	4.87	4.80	4.69	4.19	3.96	4.27	4.66	4.93	4.95	4.94	4.94	4.85	4.87	5.05	5.20	4.91	4.59	4.85	4.97	4.83	4.79	4.83	4.90	4.90	
4.18	4.17	4.17	4.17	4.16	4.16	4.15	4.14	4.14	4.13	4.12	4.11	4.10	4.09	4.08	4.08	4.07	4.06	4.05	4.04	4.03	4.02	4.01	4.01	4.00	3.99	3.98	3.97	3.97	3.96	3.95	3.95	3.94	3.94	3.94	3.93	3.93	3.93	3.93	3.93	3.93	3.93	3.95	3.96	3.97	3.98	4.00	4.01	4.02	4.04	4.06	4.09	4.14	4.20	4.27	4.40	4.48	4.61	4.91	5.24	5.35	5.21	5.12	5.01	4.61	4.06	3.90	4.18	4.40	4.51	4.75	5.10	5.29	4.87	4.15	3.97	4.18	4.69	5.31	5.63	5.70	5.89	6.37	6.10	5.05	4.35	4.11	4.19	4.55	4.53	4.27	4.28	4.30	4.59	5.12	5.21	4.93	4.89	4.88	4.66	4.56	4.59	4.52	4.34	4.21	4.14	4.29	4.32	4.11	4.05	4.26	4.75	4.98	4.77	4.65	4.86	5.05	5.10	5.34	5.26	4.65	4.64	4.99	5.03	5.09	5.17	5.16	5.16	
4.19	4.18	4.18	4.17	4.17	4.16	4.16	4.15	4.14	4.13	4.13	4.12	4.11	4.10	4.09	4.08	4.08	4.07	4.06	4.05	4.04	4.03	4.03	4.02	4.01	4.00	4.00	3.99	3.98	3.98	3.97	3.97	3.96	3.96	3.96	3.96	3.95	3.95	3.96	3.96	3.96	3.96	3.97	3.99	4.00	4.01	4.02	4.03	4.04	4.06	4.08	4.11	4.13	4.18	4.25	4.49	4.81	4.84	4.74	4.75	4.81	4.73	4.70	4.92	4.95	4.63	4.37	4.33	4.44	4.55	4.79	5.11	5.46	5.81	5.57	5.10	5.04	5.19	5.42	5.46	5.07	4.79	5.42	6.00	5.83	5.31	4.75	4.64	4.79	4.77	4.59	4.37	4.12	4.01	4.48	5.10	5.32	5.43	5.17	4.56	4.10	3.94	4.13	4.49	4.60	4.43	4.56	4.74	4.60	4.21	3.80	4.03	4.70	4.85	4.51	4.65	4.96	5.00	5.26	5.49	5.01	4.67	4.85	5.02	5.05	5.17	5.30	5.30	
4.19	4.19	4.18	4.18	4.17	4.17	4.16	4.16	4.15	4.14	4.13	4.12	4.12	4.11	4.10	4.09	4.08	4.08	4.07	4.06	4.05	4.05	4.04	4.03	4.02	4.02	4.01	4.01	4.00	4.00	3.99	3.99	3.98	3.98	3.98	3.98	3.98	3.98	3.98	3.98	3.98	3.99	3.99	3.99	4.01	4.02	4.03	4.04	4.05	4.06	4.08	4.09	4.10	4.14	4.22	4.42	4.83	5.00	4.58	4.18	4.24	4.39	4.36	4.47	4.66	4.62	4.67	4.62	4.57	4.56	4.43	4.37	4.46	5.02	5.70	5.79	5.46	4.84	4.51	4.68	4.71	4.49	4.91	5.61	5.85	6.18	6.46	6.53	6.55	6.61	6.30	5.45	4.80	4.35	4.29	4.81	5.42	5.95	6.19	5.77	5.05	4.47	4.22	4.56	4.98	4.73	4.46	4.48	4.67	4.65	3.98	3.49	3.85	4.50	4.42	4.36	4.67	4.78	5.16	5.64	5.44	5.00	4.89	4.97	4.95	5.00	5.15	5.15	
4.20	4.19	4.19	4.18	4.18	4.17	4.17	4.16	4.15	4.15	4.14	4.13	4.12	4.12	4.11	4.10	4.09	4.08	4.08	4.07	4.06	4.06	4.05	4.04	4.04	4.03	4.02	4.02	4.01	4.01	4.01	4.00	4.00	4.00	4.00	3.99	3.99	4.00	4.00	4.00	4.00	4.01	4.01	4.01	4.02	4.03	4.05	4.07	4.07	4.07	4.07	4.07	4.08	4.07	4.12	4.27	4.54	4.98	4.90	4.30	4.20	4.54	4.66	4.46	4.25	4.00	4.16	4.69	4.86	4.65	4.28	3.98	3.80	3.57	3.47	3.77	4.31	4.34	4.09	4.26	4.56	4.41	4.52	5.39	6.00	6.14	6.29	6.52	6.50	6.64	7.09	6.89	6.13	5.60	5.23	5.13	5.43	5.85	6.24	6.44	6.24	5.59	4.88	4.68	4.99	4.84	4.27	4.04	4.26	4.79	4.83	4.13	3.58	3.78	3.92	4.08	4.44	4.29	4.40	5.08	5.35	5.07	4.80	4.76	4.79	4.91	5.01	5.01	
4.20	4.20	4.19	4.19	4.18	4.18	4.17	4.16	4.16	4.15	4.14	4.14	4.13	4.12	4.11	4.11	4.10	4.09	4.08	4.08	4.07	4.06	4.06	4.05	4.05	4.04	4.04	4.03	4.03	4.02	4.02	4.02	4.01	4.01	4.01	4.01	4.01	4.01	4.02	4.02	4.02	4.03	4.03	4.04	4.04	4.05	4.06	4.07	4.08	4.08	4.08	4.08	4.07	3.99	3.80	3.62	3.70	4.34	5.10	4.83	4.35	4.57	5.09	5.39	4.99	4.15	3.81	4.13	4.41	4.34	4.13	3.79	3.53	3.22	2.77	2.69	3.33	3.92	3.93	4.17	4.33	3.98	3.62	3.89	4.72	4.78	4.58	4.88	4.93	4.82	5.61	6.55	6.52	6.17	5.74	5.07	4.82	5.31	5.71	5.82	6.06	5.93	5.53	5.38	5.47	5.42	4.83	4.40	4.23	4.37	4.77	4.74	4.32	4.05	3.89	3.84	4.21	4.19	3.90	4.10	4.38	4.48	4.61	4.71	4.76	4.86	4.92	4.92	
4.21	4.20	4.20	4.19	4.19	4.18	4.17	4.17	4.16	4.15	4.15	4.14	4.13	4.12	4.12	4.11	4.10	4.10	4.09	4.08	4.08	4.07	4.07	4.06	4.05	4.05	4.04	4.04	4.04	4.03	4.03	4.03	4.03	4.02	4.02	4.02	4.03	4.03	4.03	4.03	4.04	4.04	4.05	4.06	4.06	4.07	4.07	4.08	4.09	4.10	4.10	4.09	4.06	3.97	3.77	3.48	3.28	3.56	4.62	5.30	5.03	4.58	4.67	5.42	5.79	5.11	4.37	4.10	4.27	4.29	4.15	4.10	4.11	4.23	4.02	3.59	3.58	3.91	3.93	4.26	4.65	4.34	3.65	3.32	3.81	3.91	3.82	4.19	4.38	4.19	4.29	4.96	5.27	5.32	5.34	4.94	4.41	4.53	5.12	5.36	5.64	5.82	5.60	5.42	5.56	5.71	5.46	5.08	4.84	4.69	4.72	4.80	4.67	4.38	4.01	3.65	3.77	4.09	4.07	4.10	4.10	4.05	4.40	4.84	5.09	5.17	5.15	5.15	
4.22	4.21	4.20	4.20	4.19	4.18	4.18	4.17	4.16	4.15	4.15	4.14	4.13	4.13	4.12	4.11	4.11	4.10	4.09	4.09	4.08	4.08	4.07	4.06	4.06	4.05	4.05	4.05	4.04	4.04	4.04	4.04	4.03	4.03	4.03	4.04	4.04	4.04	4.04	4.05	4.05	4.06	4.06	4.07	4.08	4.09	4.09	4.10	4.11	4.11	4.11	4.10	4.06	4.01	3.93	3.80	3.54	3.34	3.62	4.35	4.77	4.47	3.94	4.26	5.33	5.30	4.66	4.42	4.74	4.98	4.90	4.91	4.95	5.09	5.13	4.84	4.42	4.18	4.17	4.36	4.79	4.74	3.92	3.46	3.89	4.13	4.00	4.11	4.34	4.30	4.28	4.52	4.50	4.62	4.97	4.91	4.42	4.23	4.53	4.81	5.14	5.54	5.60	5.46	5.65	5.90	6.04	6.11	5.88	5.51	5.25	5.12	4.92	4.74	4.54	4.20	3.90	3.89	4.13	4.58	4.61	4.27	4.43	4.76	4.99	5.17	5.27	5.27	
4.23	4.22	4.21	4.20	4.19	4.18	4.18	4.17	4.16	4.15	4.15	4.14	4.13	4.13	4.12	4.11	4.11	4.10	4.10	4.09	4.08	4.08	4.07	4.07	4.06	4.06	4.06	4.05	4.05	4.05	4.04	4.04	4.04	4.04	4.04	4.04	4.04	4.05	4.05	4.06	4.06	4.07	4.07	4.08	4.09	4.10	4.10	4.11	4.12	4.12	4.12	4.11	4.09	4.06	4.00	3.91	3.73	3.40	3.16	3.26	3.57	3.87	3.72	3.65	4.49	5.01	4.64	4.42	4.71	5.08	5.19	5.09	4.73	4.66	4.90	5.06	4.91	4.38	4.27	4.51	4.71	4.74	4.22	3.87	3.96	3.97	3.85	3.87	4.00	4.10	4.32	4.68	4.57	4.36	4.58	4.79	4.62	4.49	4.61	4.41	4.17	4.56	5.15	5.43	5.71	6.03	6.16	6.32	6.49	6.38	6.23	6.29	6.16	5.78	5.53	5.31	5.00	4.46	4.04	4.37	4.75	4.54	4.49	4.63	4.73	4.97	5.19	5.19	
4.23	4.22	4.21	4.20	4.19	4.18	4.17	4.17	4.16	4.15	4.15	4.14	4.13	4.13	4.12	4.11	4.11	4.10	4.10	4.09	4.08	4.08	4.07	4.07	4.06	4.06	4.06	4.05	4.05	4.05	4.05	4.05	4.04	4.05	4.05	4.05	4.05	4.05	4.06	4.06	4.07	4.07	4.08	4.09	4.10	4.11	4.11	4.12	4.13	4.13	4.14	4.13	4.12	4.10	4.06	3.99	3.87	3.70	3.54	3.47	3.48	3.61	3.63	3.42	3.68	4.34	4.39	4.13	4.12	4.20	4.23	4.40	4.18	3.95	4.05	4.35	4.72	4.50	4.08	4.15	4.56	4.83	4.74	4.47	4.44	4.35	4.17	4.23	4.22	4.14	4.21	4.59	4.73	4.52	4.48	4.70	4.82	4.78	4.97	4.97	4.47	4.32	4.60	4.82	4.82	4.90	4.96	5.04	5.46	5.85	5.92	6.09	6.32	6.40	6.36	6.30	6.35	6.15	5.49	5.32	5.57	5.38	4.93	4.76	4.71	4.83	5.02	5.02	
4.24	4.23	4.22	4.20	4.19	4.18	4.18	4.17	4.16	4.15	4.15	4.14	4.13	4.13	4.12	4.12	4.11	4.10	4.10	4.09	4.09	4.08	4.08	4.07	4.07	4.07	4.06	4.06	4.06	4.05	4.05	4.05	4.05	4.05	4.05	4.06	4.06	4.06	4.07	4.07	4.08	4.08	4.09	4.10	4.11	4.12	4.13	4.13	4.14	4.15	4.15	4.15	4.14	4.12	4.07	4.02	3.96	3.88	3.80	3.80	3.83	3.72	3.59	3.30	3.21	3.69	4.00	3.80	3.70	3.68	3.52	3.81	3.88	3.65	3.66	3.90	4.39	4.44	3.87	3.66	4.20	4.72	4.78	4.53	4.74	4.99	4.86	4.78	4.67	4.41	4.22	4.42	4.79	4.89	4.77	4.70	4.80	4.88	5.18	5.61	5.52	4.96	4.53	4.40	4.17	4.06	4.26	4.38	4.47	4.74	4.85	4.96	5.49	6.22	6.69	6.81	7.02	7.34	7.19	6.74	6.46	6.11	5.46	4.95	4.71	4.74	4.88	4.88	
