ncols	128
nrows	92
xllcorner	280654.681342
yllcorner	3772085.885776
cellsize	500.000000
NODATA_value	-32768.000000
2.96	2.80	2.95	3.24	3.14	2.96	2.71	2.87	3.36	3.46	3.40	3.43	3.27	3.22	2.99	2.75	2.77	2.68	2.97	3.45	3.63	3.61	3.57	3.65	3.59	3.46	3.62	3.69	3.49	3.41	3.49	3.52	3.53	3.60	3.68	3.75	3.90	4.09	4.45	4.45	4.53	4.66	4.31	4.20	4.49	4.70	4.62	4.29	3.81	4.42	4.91	4.95	4.96	5.13	4.98	4.64	4.45	4.14	4.11	4.13	4.20	5.03	5.51	5.53	5.79	5.76	5.66	5.34	4.66	4.24	4.19	4.49	4.65	4.52	4.25	4.25	4.23	3.95	4.02	4.11	4.12	3.42	4.44	6.06	5.77	5.00	5.09	5.32	5.41	5.02	5.12	5.38	5.19	5.42	5.43	4.94	4.78	4.42	3.93	3.64	3.84	3.85	4.18	5.23	4.95	4.00	3.90	3.72	3.79	3.80	3.85	3.84	3.68	4.02	4.16	4.06	4.10	4.25	4.49	4.53	4.52	4.58	4.61	4.51	4.35	4.34	4.34	4.34	
2.96	2.80	2.95	3.24	3.14	2.96	2.71	2.87	3.36	3.46	3.40	3.43	3.27	3.22	2.99	2.75	2.77	2.68	2.97	3.45	3.63	3.61	3.57	3.65	3.59	3.46	3.62	3.69	3.49	3.41	3.49	3.52	3.53	3.60	3.68	3.75	3.90	4.09	4.45	4.45	4.53	4.66	4.31	4.20	4.49	4.70	4.62	4.29	3.81	4.42	4.91	4.95	4.96	5.13	4.98	4.64	4.45	4.14	4.11	4.13	4.20	5.03	5.51	5.53	5.79	5.76	5.66	5.34	4.66	4.24	4.19	4.49	4.65	4.52	4.25	4.25	4.23	3.95	4.02	4.11	4.12	3.42	4.44	6.06	5.77	5.00	5.09	5.32	5.41	5.02	5.12	5.38	5.19	5.42	5.43	4.94	4.78	4.42	3.93	3.64	3.84	3.85	4.18	5.23	4.95	4.00	3.90	3.72	3.79	3.80	3.85	3.84	3.68	4.02	4.16	4.06	4.10	4.25	4.49	4.53	4.52	4.58	4.61	4.51	4.35	4.34	4.34	4.34	
2.98	2.54	2.42	2.87	3.07	2.97	2.50	2.39	2.92	3.09	3.07	3.26	3.16	3.16	3.13	2.96	2.92	2.71	2.67	2.99	3.23	3.25	3.22	3.35	3.39	3.15	3.21	3.48	3.40	3.28	3.28	3.35	3.33	3.33	3.39	3.37	3.21	3.23	3.85	3.89	3.96	4.32	4.07	3.53	3.82	4.33	4.24	4.17	3.67	3.91	4.21	3.96	4.17	4.76	4.74	4.75	4.89	4.33	4.11	4.09	3.75	4.29	4.94	4.86	5.13	5.39	5.59	5.57	5.05	4.59	4.36	4.63	4.87	4.79	4.48	4.42	4.31	3.99	4.07	4.20	4.16	3.42	3.76	5.51	5.78	4.94	4.91	5.22	5.57	5.41	5.30	5.33	4.66	4.67	5.33	5.25	5.16	4.83	4.24	3.76	3.78	3.69	3.63	4.95	5.37	4.59	4.40	4.07	3.90	3.77	3.73	3.75	3.60	3.84	4.03	3.97	3.99	4.08	4.29	4.30	4.18	4.23	4.33	4.31	4.23	4.30	4.37	4.37	
3.36	2.75	2.22	2.43	2.91	3.12	2.64	2.30	2.67	2.82	2.80	3.12	3.19	3.14	3.20	3.19	3.08	2.74	2.56	2.78	2.98	2.95	2.89	3.02	3.23	3.07	2.97	3.20	3.29	3.28	3.18	3.25	3.28	3.21	3.18	3.03	2.86	2.96	3.34	3.24	3.27	3.86	3.87	3.21	3.58	4.38	3.92	3.78	3.46	3.31	3.68	3.50	4.01	4.61	4.00	4.37	5.44	4.84	3.97	4.08	3.57	3.52	4.33	4.33	4.42	5.02	5.61	5.74	5.40	5.09	4.79	4.82	5.11	5.16	4.92	4.75	4.48	4.10	4.24	4.49	4.11	3.05	2.97	5.01	5.77	5.01	4.77	4.82	5.22	5.56	5.66	5.74	4.66	4.05	4.93	5.32	5.66	5.32	4.79	4.33	3.83	3.33	3.11	4.52	5.41	5.44	5.47	5.18	4.51	3.85	3.69	3.66	3.59	3.74	3.80	3.74	3.81	3.91	4.15	4.22	4.06	4.09	4.22	4.15	4.08	4.22	4.33	4.33	
3.42	3.31	2.85	2.44	2.63	2.96	2.79	2.56	2.70	2.79	2.82	2.93	3.06	3.05	2.98	3.06	3.04	2.76	2.67	2.83	2.98	2.92	2.87	2.97	3.13	3.10	2.98	3.01	3.10	3.21	3.17	3.17	3.25	3.21	3.16	3.04	2.98	3.03	3.14	3.13	3.20	3.65	3.70	3.11	3.43	4.55	4.14	3.67	3.55	3.36	3.57	3.52	4.45	4.72	3.39	3.29	5.20	5.44	3.98	3.91	3.75	3.67	4.30	4.51	4.65	4.98	5.51	5.81	5.58	5.51	5.40	5.04	5.18	5.32	5.08	4.84	4.42	3.96	4.08	4.42	3.74	2.79	2.83	4.30	5.29	5.03	4.95	4.55	4.55	5.20	5.87	6.06	5.26	4.87	4.97	5.10	5.77	5.48	4.97	4.74	4.21	3.22	2.91	4.17	4.71	5.12	5.58	6.02	5.54	4.09	3.91	3.86	3.75	4.04	3.84	3.45	3.66	4.03	4.24	4.18	3.98	4.10	4.38	4.27	4.10	4.16	4.20	4.20	
2.89	3.22	3.24	2.67	2.49	2.64	2.48	2.45	2.59	2.72	2.93	2.88	2.83	2.93	2.89	2.93	2.97	2.79	2.71	2.83	2.96	2.94	2.92	3.03	3.11	3.06	2.98	2.99	3.04	3.11	3.12	3.10	3.14	3.13	3.12	3.06	3.00	2.92	2.96	3.16	3.21	3.56	3.65	3.04	3.24	4.14	4.09	3.83	3.89	3.83	3.46	3.64	4.67	4.78	3.92	2.86	3.78	5.58	4.75	3.69	3.50	3.90	4.23	4.42	5.13	5.10	5.18	5.69	5.71	5.99	6.00	5.38	5.45	5.64	5.34	4.89	4.02	3.72	3.95	4.16	3.85	3.13	2.90	3.48	4.12	4.52	5.06	4.45	3.96	4.38	5.45	5.67	4.86	5.05	5.19	5.37	5.70	5.40	5.15	5.16	4.96	3.89	2.94	3.75	4.46	4.52	4.86	6.00	6.20	4.51	3.94	3.83	3.63	4.23	4.35	3.56	3.60	4.22	4.67	4.45	3.69	3.75	4.23	4.30	4.25	4.24	4.21	4.21	
2.69	2.98	3.27	3.03	2.77	2.64	2.37	2.35	2.49	2.66	2.92	3.04	2.97	2.88	2.90	2.90	2.86	2.80	2.79	2.87	2.94	2.97	2.98	3.06	3.13	3.11	3.04	3.05	3.10	3.13	3.12	3.13	3.14	3.11	3.09	3.07	3.07	2.97	2.88	3.03	3.02	3.31	3.62	3.36	3.55	3.72	3.57	3.58	3.83	3.97	3.55	4.01	4.50	4.46	4.66	3.58	2.98	4.74	5.48	4.06	3.19	3.78	3.83	3.84	5.13	5.02	4.91	5.25	5.31	6.18	6.31	5.52	5.59	5.92	6.08	5.72	4.33	3.96	4.24	4.34	4.17	3.73	3.40	3.04	3.01	3.96	4.96	4.45	3.63	3.73	5.33	5.57	4.36	4.43	4.90	5.54	5.77	5.12	4.65	4.85	5.07	4.75	3.67	3.55	4.62	4.76	4.58	5.70	6.45	5.63	4.50	3.84	3.31	3.63	4.34	4.07	3.80	4.22	4.98	5.28	4.20	3.69	4.08	4.12	4.16	4.20	4.15	4.15	
2.71	2.94	3.17	3.21	3.29	3.08	2.66	2.50	2.52	2.63	2.78	2.98	3.11	2.99	2.98	2.97	2.85	2.82	2.83	2.87	2.86	2.91	2.99	3.06	3.09	3.06	3.03	3.05	3.09	3.10	3.09	3.09	3.10	3.07	3.05	3.04	3.03	3.01	3.01	2.95	2.89	3.01	3.27	3.46	3.65	3.63	3.38	3.44	3.63	3.63	3.66	4.18	4.18	4.11	4.60	4.24	3.49	3.92	5.26	4.79	3.37	3.45	3.59	3.99	5.02	4.58	4.59	4.76	4.79	6.11	6.48	5.54	5.34	5.47	5.72	6.18	5.43	4.66	4.30	4.29	4.42	4.53	4.27	3.14	2.74	3.72	4.93	5.04	4.25	3.86	5.43	5.46	4.45	4.38	4.76	5.28	5.69	5.47	4.56	4.26	4.42	4.72	4.05	3.42	4.37	4.99	4.75	5.26	5.90	5.95	5.73	4.96	4.00	3.49	3.63	3.75	3.68	3.88	4.46	5.34	5.07	4.18	4.35	4.45	4.36	4.29	4.17	4.17	
2.58	2.87	3.09	3.00	3.21	3.30	3.02	2.79	2.70	2.70	2.74	2.83	2.96	2.99	3.01	3.00	2.88	2.84	2.89	2.95	2.88	2.84	2.94	3.04	3.08	3.04	3.04	3.09	3.14	3.13	3.09	3.11	3.11	3.01	3.02	3.11	3.04	3.04	3.23	3.16	3.04	3.00	3.09	3.35	3.49	3.59	3.45	3.44	3.61	3.59	3.71	4.03	3.98	4.13	4.31	3.99	3.87	3.93	4.72	4.99	4.21	3.75	3.50	4.01	4.82	4.55	4.33	4.28	4.46	5.97	6.40	5.70	5.54	5.15	5.09	5.48	5.05	4.70	4.33	4.20	4.29	4.77	5.10	4.18	3.24	3.61	4.64	5.45	5.38	4.74	5.40	5.15	4.65	4.92	5.08	5.01	5.12	5.74	5.46	4.58	4.16	4.45	4.08	3.28	3.78	4.59	4.86	5.30	5.31	5.08	5.71	5.66	4.92	4.43	3.84	3.42	3.54	3.81	3.98	4.67	5.05	4.57	4.47	4.67	4.71	4.79	4.80	4.80	
2.42	2.66	3.06	2.98	2.92	3.01	2.97	2.93	2.86	2.78	2.76	2.79	2.77	2.81	2.91	2.92	2.86	2.84	2.87	3.00	2.99	2.88	2.88	2.99	3.06	3.01	3.02	3.09	3.18	3.17	3.02	3.04	3.15	2.99	3.00	3.18	3.13	3.04	3.18	3.30	3.23	3.19	3.20	3.27	3.37	3.51	3.44	3.30	3.46	3.80	3.83	3.70	3.79	4.10	4.09	3.76	3.80	4.02	4.60	4.83	5.02	4.93	3.85	3.68	4.34	4.75	4.41	4.19	4.50	6.02	5.97	5.35	5.99	6.11	6.07	5.41	4.75	4.60	4.69	4.72	4.28	4.37	4.82	4.40	3.59	3.45	3.97	4.77	5.79	5.81	5.28	4.73	4.37	5.12	5.53	4.89	4.46	4.98	5.86	5.29	4.44	4.46	4.24	3.59	3.72	4.12	4.46	5.19	5.01	4.24	4.93	5.46	4.73	4.41	4.20	3.58	3.65	4.13	4.09	4.38	4.56	4.34	4.26	4.20	4.13	4.65	5.18	5.18	
2.34	2.47	2.97	3.12	2.95	2.87	2.79	2.83	2.85	2.82	2.80	2.81	2.76	2.76	2.82	2.84	2.83	2.84	2.82	2.90	3.01	2.93	2.86	2.93	3.01	2.97	2.96	3.11	3.35	3.41	3.18	3.10	3.18	3.07	3.08	3.19	3.17	3.09	3.10	3.18	3.18	3.24	3.32	3.32	3.37	3.53	3.50	3.26	3.30	3.74	3.95	3.79	3.76	3.95	3.75	3.66	3.96	4.23	4.79	4.93	5.33	6.06	5.58	4.50	4.43	4.97	4.90	4.76	4.64	6.07	6.16	4.58	5.16	6.31	7.38	6.72	5.28	4.75	4.63	4.84	4.62	4.57	4.53	4.10	3.74	3.55	3.76	4.11	5.39	6.22	4.79	4.46	4.51	4.92	5.69	5.22	4.14	4.02	5.42	5.56	4.60	4.15	4.19	4.15	4.13	4.11	4.18	4.95	5.01	3.93	4.24	5.52	5.08	4.13	3.93	3.57	3.59	4.08	4.08	4.29	4.33	4.08	4.22	4.23	3.95	4.26	4.74	4.74	
2.32	2.35	2.77	3.01	2.89	2.82	2.75	2.76	2.78	2.82	2.83	2.83	2.75	2.72	2.75	2.75	2.78	2.85	2.85	2.85	2.94	2.90	2.79	2.86	2.97	2.91	2.80	2.89	3.25	3.55	3.48	3.35	3.28	3.15	3.11	3.15	3.16	3.11	3.16	3.17	3.05	3.16	3.38	3.37	3.38	3.58	3.64	3.43	3.33	3.39	3.61	3.92	3.90	3.87	3.43	3.28	3.73	4.08	4.39	4.70	4.81	5.45	6.47	6.18	5.44	5.30	5.54	5.70	4.84	5.35	6.74	5.06	3.90	4.76	7.18	7.73	5.74	4.57	4.73	4.89	4.74	5.00	4.78	4.07	3.84	3.79	3.94	4.05	5.27	6.37	4.54	4.09	4.88	5.07	5.49	5.57	4.41	3.71	4.91	5.42	4.57	3.86	3.93	4.60	4.92	4.62	4.28	4.66	5.29	4.57	3.68	4.87	5.66	4.87	4.17	3.65	3.70	4.12	4.03	4.13	4.17	4.01	4.22	4.27	4.23	4.28	4.28	4.28	
2.44	2.40	2.66	2.85	2.78	2.76	2.74	2.73	2.75	2.81	2.82	2.90	2.81	2.65	2.70	2.73	2.75	2.85	2.91	2.89	2.94	2.94	2.76	2.84	3.00	2.90	2.77	2.64	2.73	3.17	3.34	3.30	3.27	3.31	3.20	3.12	3.20	3.14	3.27	3.32	3.03	3.12	3.48	3.45	3.38	3.61	3.76	3.72	3.63	3.34	3.27	3.58	3.74	3.80	3.27	3.02	3.31	3.62	3.87	4.10	4.05	4.03	5.20	6.26	5.85	5.10	5.36	6.11	5.18	4.89	6.77	6.22	4.17	3.90	6.28	8.07	6.70	4.71	4.87	5.25	4.74	4.99	5.00	4.27	3.99	4.09	4.22	4.14	5.34	6.51	4.91	3.83	4.60	5.35	5.41	5.61	4.75	3.70	4.79	5.49	4.77	4.08	3.72	4.40	5.23	5.05	4.43	4.21	5.01	5.27	4.03	3.96	5.05	5.07	4.58	3.99	4.00	4.46	4.25	4.32	4.19	4.01	4.42	4.22	4.22	4.36	4.22	4.22	
2.68	2.51	2.53	2.70	2.71	2.72	2.75	2.69	2.65	2.77	2.80	2.92	2.97	2.72	2.62	2.70	2.77	2.82	2.93	2.92	2.93	2.99	2.79	2.78	2.94	2.81	2.80	2.70	2.57	2.83	3.04	3.06	3.16	3.44	3.33	3.10	3.15	3.02	3.20	3.32	3.03	3.15	3.51	3.48	3.41	3.64	3.82	3.94	4.04	3.80	3.50	3.44	3.62	3.77	3.30	2.99	3.38	3.75	3.93	4.00	3.86	3.97	4.66	5.78	6.14	5.19	4.92	5.60	5.25	5.34	6.68	6.64	5.01	3.85	5.46	7.65	7.42	5.62	5.04	5.47	5.18	5.03	4.99	4.49	4.17	4.38	4.60	4.35	5.17	6.40	5.63	3.97	4.08	5.30	5.49	6.00	5.13	3.57	4.36	5.17	4.66	3.91	3.66	4.26	4.96	5.10	4.70	4.27	4.65	5.26	4.98	4.48	4.58	4.70	4.62	4.12	3.99	4.44	4.29	4.52	4.53	4.18	4.77	4.78	4.26	4.17	4.19	4.19	
2.98	2.72	2.45	2.53	2.62	2.67	2.79	2.76	2.60	2.68	2.75	2.83	2.98	2.86	2.65	2.66	2.79	2.80	2.85	2.90	2.91	3.02	2.91	2.79	2.87	2.72	2.68	2.70	2.66	2.78	2.87	2.79	3.00	3.50	3.43	3.26	3.33	3.10	3.16	3.25	3.03	3.28	3.56	3.52	3.54	3.71	3.85	3.99	4.23	4.34	4.13	3.97	4.06	4.12	3.60	3.01	3.35	3.95	4.23	4.13	3.71	4.00	4.56	5.55	6.43	5.67	5.02	4.93	4.79	5.37	6.13	6.74	6.07	4.35	4.83	6.71	7.13	6.35	5.60	5.46	5.53	5.34	5.03	4.61	4.24	4.49	5.09	4.93	4.97	6.04	6.15	4.54	4.10	5.01	5.17	6.18	5.96	4.18	4.13	4.59	4.21	3.42	3.58	4.45	4.65	4.75	4.63	4.27	4.34	4.60	4.87	4.95	4.66	4.46	4.57	4.34	4.13	4.36	4.26	4.38	4.57	4.21	4.60	5.30	4.80	4.25	4.29	4.29	
3.16	2.84	2.46	2.42	2.48	2.54	2.69	2.77	2.62	2.61	2.66	2.70	2.81	2.76	2.62	2.63	2.78	2.83	2.80	2.78	2.85	3.03	3.07	3.03	3.11	3.00	2.84	2.64	2.62	2.78	2.79	2.55	2.79	3.43	3.45	3.54	3.72	3.57	3.54	3.54	3.35	3.57	3.78	3.65	3.75	3.80	3.79	3.89	3.97	4.22	4.12	3.94	4.13	4.28	3.79	3.10	3.18	3.89	4.57	4.37	3.55	3.86	4.52	5.37	6.23	5.87	5.62	4.97	4.74	5.26	5.14	6.06	6.78	5.48	4.88	5.80	6.33	6.14	5.83	5.45	5.50	5.51	5.17	4.76	4.26	4.27	5.09	5.42	4.98	5.55	6.21	5.30	4.59	4.81	4.78	5.62	6.26	5.45	4.95	4.93	4.18	3.16	3.51	4.61	4.58	4.37	4.53	4.34	4.28	4.28	4.40	4.73	4.65	4.34	4.40	4.55	4.45	4.36	4.22	4.31	4.35	3.88	4.04	4.98	5.19	4.77	4.57	4.57	
3.32	2.84	2.38	2.33	2.32	2.36	2.50	2.63	2.58	2.57	2.61	2.67	2.69	2.61	2.55	2.59	2.74	2.84	2.81	2.70	2.75	2.98	3.04	3.05	3.21	3.36	3.37	2.98	2.75	2.90	2.92	2.70	2.85	3.32	3.28	3.42	3.67	3.52	3.63	3.65	3.46	3.69	3.81	3.54	3.73	3.79	3.62	3.74	3.67	3.94	4.01	3.82	4.13	4.35	3.86	3.21	3.08	3.79	4.75	4.47	3.85	4.23	4.86	5.50	5.69	5.61	6.20	5.62	5.13	5.25	4.86	5.66	6.54	6.43	5.73	5.44	5.83	5.91	5.86	5.57	5.47	5.51	5.26	4.95	4.47	4.14	4.62	5.37	5.07	5.10	5.74	5.53	5.09	4.98	4.83	5.09	5.87	5.91	5.70	5.71	4.91	3.55	3.57	4.69	4.70	4.34	4.49	4.52	4.41	4.32	4.35	4.59	4.68	4.42	4.22	4.29	4.34	4.17	3.95	4.21	4.29	3.80	3.92	4.27	4.68	4.97	4.81	4.81	
3.43	3.08	2.61	2.46	2.37	2.30	2.42	2.55	2.54	2.56	2.63	2.69	2.61	2.49	2.48	2.52	2.64	2.74	2.74	2.68	2.66	2.80	2.87	2.80	2.87	3.13	3.45	3.45	3.26	3.25	3.21	3.01	2.96	3.12	2.97	3.09	3.39	3.12	3.23	3.34	3.06	3.52	3.71	3.38	3.62	3.78	3.62	3.66	3.55	3.81	4.01	3.74	4.15	4.54	4.09	3.44	3.06	3.69	4.66	4.42	4.21	4.71	5.32	5.66	5.32	5.25	6.28	6.24	5.76	5.43	4.95	5.81	6.17	6.46	6.45	5.82	5.79	5.83	5.88	5.67	5.53	5.50	5.34	5.13	4.81	4.48	4.53	5.06	5.03	5.07	5.41	5.37	5.35	5.18	4.95	4.87	5.19	5.48	5.54	5.62	5.37	4.26	3.84	4.63	4.70	4.47	4.47	4.51	4.44	4.31	4.22	4.30	4.45	4.37	4.27	4.26	4.29	4.16	3.92	4.06	4.16	3.81	4.03	4.13	4.21	4.75	4.83	4.83	
3.17	3.11	2.97	2.82	2.72	2.52	2.47	2.58	2.56	2.55	2.68	2.76	2.55	2.36	2.43	2.53	2.60	2.62	2.62	2.61	2.60	2.66	2.74	2.71	2.65	2.69	2.86	3.02	2.98	2.97	2.89	2.79	2.90	2.96	2.83	2.85	3.08	2.86	2.85	3.10	3.00	3.27	3.50	3.37	3.50	3.77	3.78	3.68	3.49	3.64	3.95	3.65	3.96	4.54	4.34	3.86	3.28	3.59	4.34	4.36	4.50	5.10	5.52	5.57	5.43	5.38	5.94	6.33	6.32	5.90	5.16	5.80	6.30	6.24	6.29	6.11	6.03	5.91	5.88	5.77	5.62	5.52	5.41	5.28	5.08	4.89	4.80	4.89	4.84	5.06	5.42	5.33	5.42	5.11	4.77	4.96	4.83	5.16	5.43	5.26	5.20	4.58	4.22	4.55	4.59	4.50	4.51	4.52	4.47	4.38	4.24	4.17	4.22	4.22	4.23	4.24	4.25	4.17	4.02	3.98	3.96	3.72	3.93	4.23	4.22	4.50	4.67	4.67	
2.89	2.81	2.79	2.79	2.79	2.68	2.52	2.58	2.57	2.50	2.66	2.88	2.65	2.29	2.35	2.52	2.59	2.54	2.58	2.62	2.60	2.65	2.63	2.60	2.57	2.61	2.66	2.68	2.63	2.67	2.64	2.68	2.88	2.94	2.94	2.94	2.96	2.82	2.64	2.89	3.21	3.17	3.33	3.39	3.33	3.63	3.90	3.84	3.55	3.53	3.81	3.66	3.77	4.36	4.41	4.19	3.79	3.56	3.98	4.27	4.63	5.51	5.65	5.21	5.63	5.84	5.61	6.09	6.52	6.46	5.78	5.77	6.47	6.38	6.07	6.06	6.15	6.09	5.98	5.87	5.73	5.62	5.53	5.43	5.28	5.15	5.05	4.94	4.68	4.66	5.15	5.29	5.44	5.19	4.75	5.03	4.84	5.04	5.34	5.19	5.06	4.71	4.54	4.57	4.55	4.49	4.51	4.53	4.49	4.42	4.35	4.28	4.21	4.16	4.17	4.17	4.14	4.10	4.04	3.97	3.94	3.79	3.75	4.02	4.16	4.28	4.40	4.40	
2.90	2.69	2.48	2.49	2.55	2.54	2.47	2.50	2.52	2.45	2.52	2.82	2.75	2.30	2.30	2.49	2.57	2.54	2.56	2.64	2.66	2.67	2.50	2.40	2.45	2.56	2.62	2.72	2.73	2.67	2.63	2.70	2.85	2.81	2.86	3.08	3.05	2.86	2.62	2.73	3.25	3.23	3.25	3.38	3.28	3.43	3.78	3.92	3.72	3.61	3.73	3.70	3.70	4.17	4.27	4.08	4.20	3.80	3.75	4.18	4.65	5.61	5.74	5.22	5.84	6.22	5.56	5.87	6.52	6.81	6.46	6.00	6.32	6.41	6.16	6.08	6.13	6.12	6.05	5.96	5.84	5.74	5.64	5.54	5.42	5.30	5.20	5.09	4.82	4.58	4.83	5.07	5.18	5.12	4.89	4.96	4.87	4.90	5.03	5.04	4.95	4.76	4.66	4.62	4.57	4.51	4.52	4.52	4.49	4.47	4.43	4.36	4.25	4.13	4.13	4.13	4.07	4.08	4.04	3.94	3.89	3.83	3.90	3.99	3.92	3.95	4.03	4.03	
3.02	2.78	2.45	2.37	2.44	2.43	2.37	2.43	2.45	2.44	2.46	2.67	2.73	2.34	2.28	2.42	2.51	2.54	2.49	2.50	2.60	2.73	2.51	2.27	2.40	2.52	2.49	2.54	2.64	2.68	2.64	2.68	2.79	2.70	2.61	2.94	3.13	2.94	2.72	2.69	3.12	3.28	3.11	3.18	3.28	3.38	3.57	3.76	3.81	3.70	3.73	3.79	3.84	4.16	4.16	3.91	4.22	4.16	3.82	4.07	4.83	5.58	5.45	5.37	6.05	6.54	5.90	5.75	6.54	7.32	6.84	6.32	6.19	6.22	6.15	6.17	6.24	6.16	6.08	6.04	5.95	5.86	5.77	5.67	5.55	5.43	5.33	5.23	5.06	4.87	4.86	4.94	4.96	4.92	4.88	4.90	4.92	4.87	4.85	4.86	4.80	4.74	4.67	4.60	4.55	4.50	4.52	4.48	4.42	4.45	4.48	4.53	4.48	4.29	4.31	4.24	4.12	4.18	4.14	4.00	3.88	3.73	4.03	4.44	4.14	3.73	3.63	3.63	
3.09	2.89	2.61	2.48	2.50	2.49	2.37	2.37	2.38	2.38	2.48	2.65	2.65	2.39	2.33	2.35	2.39	2.45	2.41	2.47	2.55	2.75	2.66	2.26	2.34	2.50	2.52	2.47	2.43	2.59	2.71	2.83	2.86	2.70	2.48	2.69	3.00	2.91	2.77	2.68	3.03	3.35	3.09	3.02	3.19	3.44	3.48	3.49	3.79	3.69	3.57	3.68	4.04	4.25	4.07	3.95	4.20	4.40	4.00	4.00	4.89	5.73	5.35	5.25	6.05	6.64	6.37	5.95	6.43	6.91	6.61	6.32	6.17	6.13	6.07	6.17	6.36	6.31	6.19	6.14	6.07	5.98	5.88	5.79	5.67	5.56	5.44	5.34	5.23	5.12	5.06	5.02	4.98	4.93	4.88	4.85	4.91	4.89	4.83	4.77	4.69	4.60	4.54	4.53	4.50	4.51	4.52	4.48	4.40	4.41	4.32	4.44	4.54	4.38	4.49	4.45	4.28	4.33	4.32	4.09	3.94	3.66	3.67	4.41	4.74	4.08	3.50	3.50	
3.03	2.87	2.63	2.53	2.49	2.40	2.33	2.32	2.28	2.23	2.35	2.63	2.57	2.27	2.37	2.47	2.36	2.37	2.32	2.43	2.50	2.62	2.76	2.42	2.29	2.41	2.49	2.49	2.41	2.48	2.62	2.81	2.90	2.74	2.48	2.55	2.80	2.81	2.75	2.62	2.94	3.35	3.10	3.00	3.13	3.44	3.41	3.35	3.77	3.76	3.49	3.55	4.12	4.25	3.97	3.87	4.20	4.56	4.13	4.03	4.71	5.76	5.67	5.19	5.91	6.44	6.40	6.23	6.29	6.38	6.23	6.10	6.08	6.11	6.06	6.17	6.38	6.43	6.36	6.28	6.20	6.08	5.98	5.91	5.78	5.65	5.53	5.44	5.34	5.26	5.19	5.08	5.01	4.98	4.92	4.87	4.86	4.88	4.94	4.81	4.74	4.49	4.29	4.46	4.54	4.64	4.53	4.44	4.47	4.51	4.33	4.16	4.31	4.17	4.12	4.26	4.16	4.21	4.40	4.09	3.85	3.53	3.26	3.71	4.52	4.50	4.04	4.04	
2.97	2.79	2.47	2.46	2.55	2.30	2.19	2.21	2.16	2.06	2.08	2.45	2.55	2.17	2.18	2.56	2.47	2.31	2.28	2.39	2.45	2.38	2.65	2.60	2.34	2.40	2.45	2.41	2.41	2.48	2.57	2.72	2.86	2.75	2.52	2.49	2.61	2.68	2.69	2.57	2.80	3.21	3.09	2.95	3.19	3.45	3.22	3.20	3.70	3.76	3.45	3.57	4.14	4.22	3.98	3.81	4.16	4.64	4.32	4.16	4.53	5.49	5.82	5.43	5.87	6.24	6.27	6.29	6.27	6.25	6.09	5.93	5.96	6.08	6.14	6.28	6.47	6.54	6.52	6.45	6.34	6.19	6.07	6.01	5.89	5.73	5.59	5.50	5.41	5.39	5.36	5.15	4.96	4.95	4.90	4.92	4.94	4.86	5.05	5.17	5.08	4.56	4.15	4.30	4.53	4.88	4.63	4.34	4.39	4.59	4.69	4.32	4.51	4.55	4.06	4.07	4.05	4.04	4.28	4.24	3.96	3.48	3.11	3.29	3.85	4.26	4.32	4.32	
2.98	2.93	2.57	2.46	2.67	2.44	2.26	2.21	2.12	1.98	1.89	2.13	2.32	2.14	2.00	2.40	2.54	2.18	2.14	2.42	2.52	2.30	2.46	2.61	2.40	2.39	2.44	2.36	2.29	2.41	2.54	2.66	2.88	2.83	2.58	2.50	2.50	2.54	2.53	2.57	2.75	2.99	3.03	2.85	3.25	3.56	3.18	3.07	3.50	3.65	3.39	3.55	4.12	4.23	3.99	3.83	4.12	4.63	4.55	4.35	4.57	5.26	5.69	5.65	5.88	6.18	6.32	6.37	6.37	6.30	6.16	5.93	5.86	6.06	6.27	6.49	6.69	6.76	6.72	6.61	6.46	6.27	6.13	6.10	5.99	5.79	5.66	5.57	5.42	5.41	5.56	5.44	4.99	4.82	4.75	4.70	4.99	4.91	4.79	5.36	5.47	4.61	4.07	4.18	4.56	5.02	4.80	4.32	4.17	4.45	4.78	4.51	4.68	5.07	4.78	4.48	4.24	4.25	4.31	4.33	4.23	3.73	3.24	3.11	3.57	3.94	3.95	3.95	
2.69	2.91	2.87	2.72	2.88	2.75	2.56	2.41	2.22	2.04	1.88	1.92	1.94	2.03	2.07	2.31	2.59	2.19	2.03	2.35	2.50	2.28	2.33	2.49	2.39	2.36	2.43	2.45	2.29	2.29	2.38	2.44	2.69	2.86	2.75	2.55	2.53	2.58	2.42	2.51	2.76	2.83	2.89	2.75	3.13	3.58	3.33	3.13	3.31	3.56	3.36	3.42	3.98	4.21	4.03	3.84	4.00	4.58	4.74	4.56	4.75	5.18	5.53	5.67	5.90	6.20	6.39	6.52	6.58	6.55	6.43	6.11	5.89	6.10	6.51	6.82	7.01	7.03	6.92	6.77	6.58	6.34	6.15	6.10	5.99	5.78	5.68	5.70	5.51	5.27	5.46	5.69	5.28	4.74	4.64	4.36	4.68	4.96	4.41	5.13	5.80	4.87	3.97	4.03	4.73	5.26	5.14	4.65	4.28	4.44	4.67	4.52	4.49	4.83	5.26	5.31	4.80	4.72	4.75	4.54	4.30	3.85	3.49	3.11	3.54	3.91	3.68	3.68	
2.39	2.58	2.74	2.88	3.18	3.22	3.01	2.71	2.35	2.20	2.01	1.89	1.70	1.69	1.93	2.25	2.62	2.38	2.17	2.36	2.50	2.30	2.21	2.38	2.34	2.31	2.40	2.50	2.48	2.38	2.38	2.34	2.37	2.63	2.72	2.52	2.42	2.54	2.39	2.40	2.73	2.80	2.78	2.68	2.96	3.46	3.44	3.20	3.17	3.45	3.38	3.33	3.79	4.07	4.06	3.93	3.95	4.45	4.75	4.71	4.90	5.19	5.46	5.66	5.90	6.23	6.47	6.65	6.86	7.02	6.92	6.48	6.17	6.40	6.94	7.28	7.39	7.37	7.10	6.83	6.57	6.39	6.25	6.05	5.93	5.70	5.70	5.80	5.71	5.42	5.23	5.53	5.56	4.86	4.58	4.18	4.22	4.88	4.34	4.60	5.70	5.38	4.23	3.86	4.44	5.15	5.44	5.22	4.86	4.93	4.92	4.73	4.67	4.46	4.83	5.42	5.23	5.16	5.23	5.15	4.81	4.05	3.61	3.26	3.44	3.81	3.71	3.71	
2.26	2.47	2.47	2.43	2.86	3.22	3.38	3.24	2.80	2.61	2.44	2.17	1.90	1.57	1.57	1.89	2.37	2.36	2.24	2.33	2.52	2.44	2.19	2.27	2.25	2.25	2.29	2.35	2.50	2.52	2.61	2.54	2.34	2.47	2.55	2.47	2.41	2.43	2.36	2.32	2.63	2.79	2.70	2.67	2.84	3.29	3.49	3.30	3.14	3.26	3.33	3.33	3.70	3.87	3.92	3.99	4.03	4.38	4.65	4.75	4.94	5.18	5.43	5.67	5.90	6.19	6.48	6.69	7.04	7.46	7.49	7.15	7.17	7.26	7.59	7.79	7.67	7.64	7.40	6.86	6.46	6.28	6.36	6.22	5.81	5.42	5.71	5.94	5.89	5.84	5.51	5.53	5.73	5.34	4.98	4.68	4.36	5.04	4.97	4.48	5.15	5.53	4.93	4.43	4.33	4.58	4.97	5.10	4.93	5.04	5.10	4.70	4.61	4.30	4.36	4.86	4.89	5.16	5.41	5.55	5.70	4.95	3.97	3.55	3.43	3.63	3.75	3.75	
1.94	2.31	2.38	2.08	2.23	2.56	2.95	3.23	3.14	3.05	2.88	2.67	2.50	2.04	1.71	1.74	2.06	2.19	2.16	2.15	2.31	2.40	2.22	2.19	2.16	2.17	2.23	2.16	2.23	2.30	2.51	2.68	2.50	2.50	2.50	2.39	2.42	2.41	2.31	2.24	2.48	2.76	2.68	2.66	2.76	3.14	3.46	3.42	3.29	3.19	3.17	3.27	3.64	3.72	3.76	3.98	4.14	4.38	4.60	4.73	4.91	5.15	5.38	5.68	5.95	6.10	6.42	6.72	7.06	7.64	7.75	7.66	10.51	8.38	7.95	8.18	7.69	7.58	7.64	7.16	6.66	5.89	5.82	6.32	5.73	4.91	5.36	6.03	6.17	6.12	6.18	6.22	5.99	5.72	5.58	5.48	5.05	5.16	5.52	5.14	5.05	5.25	5.05	4.86	4.67	4.44	4.45	4.54	4.43	4.57	4.91	4.67	4.36	4.07	4.10	4.36	4.29	4.50	4.87	5.11	5.66	5.74	4.85	4.09	3.79	3.72	3.75	3.75	
1.83	2.12	2.33	2.17	2.17	2.29	2.46	2.59	2.69	2.93	2.80	2.45	2.51	2.38	2.02	1.88	1.97	2.13	2.14	2.09	2.13	2.19	2.09	2.06	2.11	2.11	2.21	2.18	2.11	2.13	2.25	2.53	2.57	2.55	2.54	2.38	2.35	2.40	2.33	2.21	2.29	2.63	2.72	2.62	2.69	3.05	3.36	3.39	3.44	3.38	3.21	3.25	3.52	3.58	3.67	3.95	4.21	4.41	4.59	4.71	4.87	5.08	5.29	5.61	6.04	6.06	6.32	6.72	6.93	7.52	7.38	6.71	7.30	6.96	7.10	8.06	7.57	7.07	7.37	7.53	7.36	6.05	5.37	6.21	6.12	4.97	4.78	5.48	5.88	5.71	5.80	6.26	5.90	5.28	5.14	5.13	4.90	4.80	5.10	5.11	5.00	4.98	4.83	4.76	4.80	4.63	4.46	4.37	4.28	4.44	4.67	4.70	4.43	3.99	3.93	4.01	4.03	4.02	4.26	4.60	4.89	5.53	5.54	4.81	4.44	4.17	3.89	3.89	
1.90	2.08	2.31	2.33	2.35	2.51	2.60	2.29	2.16	2.64	2.76	2.26	2.18	2.34	2.15	1.95	1.93	2.09	2.22	2.22	2.24	2.23	2.09	1.94	1.99	2.05	2.16	2.23	2.15	2.10	2.15	2.30	2.35	2.45	2.56	2.40	2.31	2.34	2.32	2.27	2.17	2.34	2.66	2.61	2.57	2.97	3.26	3.28	3.40	3.54	3.48	3.41	3.47	3.52	3.70	4.00	4.27	4.44	4.57	4.67	4.80	4.98	5.16	5.38	5.94	6.03	6.09	6.55	6.76	7.15	6.74	5.55	5.39	5.57	5.57	7.00	7.43	6.62	6.59	7.19	7.63	6.93	6.09	5.99	6.17	5.46	4.70	4.91	5.17	5.03	5.13	5.79	5.78	5.23	4.94	4.89	4.75	4.75	4.82	4.77	4.71	4.70	4.69	4.65	4.68	4.56	4.49	4.31	4.23	4.45	4.55	4.65	4.58	4.24	4.04	3.91	3.93	3.88	3.99	4.29	4.26	4.68	5.19	4.88	4.62	4.64	4.51	4.51	
1.96	2.10	2.32	2.26	2.13	2.36	2.78	2.50	2.07	2.46	2.82	2.58	2.31	2.25	2.15	1.97	1.91	2.01	2.16	2.21	2.25	2.27	2.19	1.98	1.83	1.84	1.93	2.06	2.10	2.03	2.08	2.20	2.08	2.14	2.43	2.39	2.24	2.20	2.20	2.28	2.25	2.13	2.42	2.62	2.47	2.80	3.15	3.19	3.30	3.51	3.65	3.65	3.65	3.72	3.86	4.12	4.33	4.46	4.54	4.59	4.70	4.87	5.03	5.04	5.60	6.02	5.79	6.02	6.46	6.65	6.07	4.62	4.51	5.19	4.53	5.31	6.83	6.74	6.19	6.46	6.90	6.87	6.62	6.00	5.81	5.56	5.03	5.00	5.08	4.93	5.14	5.50	5.56	5.48	5.07	4.88	4.82	4.82	4.87	4.77	4.59	4.48	4.48	4.60	4.76	4.66	4.65	4.53	4.36	4.41	4.59	4.69	4.59	4.35	4.17	3.96	3.84	3.84	3.88	4.00	3.94	4.09	4.42	4.40	4.21	4.56	4.98	4.98	
1.84	1.99	2.29	2.22	2.00	2.11	2.54	2.56	2.15	2.26	2.54	2.52	2.50	2.36	2.21	2.02	1.87	1.93	2.05	2.11	2.09	2.09	2.10	2.05	1.92	1.82	1.76	1.82	1.98	2.02	2.05	2.19	2.07	1.95	2.18	2.38	2.30	2.13	2.06	2.16	2.32	2.16	2.14	2.50	2.50	2.62	2.94	3.08	3.20	3.40	3.60	3.72	3.97	4.63	4.01	4.12	4.31	4.46	4.45	4.44	4.59	4.80	5.02	4.84	5.12	6.03	5.98	5.91	6.63	6.72	6.09	4.46	4.04	4.85	4.31	4.10	5.48	6.58	6.43	6.30	6.27	6.41	6.66	6.29	5.99	5.66	5.28	5.22	5.25	5.13	5.24	5.39	5.29	5.35	5.16	5.00	4.96	4.87	4.94	5.05	4.90	4.73	4.55	4.55	4.88	5.05	5.06	5.03	4.91	4.67	4.77	4.96	4.85	4.56	4.35	4.16	3.85	3.81	3.85	3.89	3.90	3.98	4.09	4.18	4.04	4.33	4.90	4.90	
1.66	1.79	2.20	2.31	2.19	2.27	2.43	2.36	2.13	2.18	2.23	2.23	2.36	2.32	2.26	2.13	1.90	1.90	2.02	2.13	2.15	2.07	2.04	2.04	2.02	1.98	1.83	1.74	1.84	1.89	1.93	2.03	2.02	1.89	1.91	2.16	2.28	2.11	1.97	1.96	2.16	2.20	2.00	2.22	2.46	2.52	2.71	2.90	3.04	3.21	3.37	3.46	3.56	3.74	3.68	3.82	4.03	4.42	4.43	4.25	4.48	4.72	5.11	5.04	4.85	5.78	6.36	6.53	7.00	6.69	6.26	5.32	4.33	4.36	4.25	3.84	4.29	5.53	6.29	6.44	6.05	6.03	6.43	6.25	6.10	5.90	5.50	5.28	5.15	5.11	5.19	5.28	5.28	5.12	4.93	5.01	5.20	5.05	4.95	5.14	5.11	5.02	4.79	4.47	4.44	4.65	4.80	4.85	4.97	4.88	4.83	5.06	5.17	5.00	4.85	4.69	4.25	3.87	3.80	3.88	3.87	3.94	4.01	4.06	4.04	4.28	4.63	4.63	
1.77	1.74	1.92	2.14	2.21	2.36	2.59	2.41	2.08	2.19	2.13	2.08	2.25	2.18	2.11	2.13	1.99	1.89	1.98	2.09	2.17	2.12	1.99	1.93	1.88	1.87	1.79	1.70	1.78	1.75	1.81	1.90	1.84	1.77	1.76	1.91	2.09	2.05	1.95	1.83	1.92	2.15	2.00	2.01	2.25	2.37	2.52	2.69	2.81	2.93	3.03	3.02	2.92	2.93	3.10	3.34	3.48	3.97	4.33	3.99	4.17	4.41	4.79	5.10	4.84	5.17	5.73	5.98	5.94	5.58	5.38	5.18	4.49	3.90	3.88	3.94	4.09	4.77	5.65	6.18	5.95	5.71	5.99	6.02	5.80	5.72	5.55	5.34	5.15	5.08	5.13	5.14	5.23	5.14	4.67	4.52	4.91	4.90	4.77	4.89	4.86	4.78	4.70	4.52	4.33	4.25	4.34	4.39	4.42	4.62	4.60	4.72	4.95	4.88	4.95	5.00	4.89	4.38	3.94	3.96	3.85	3.79	3.93	4.11	4.14	4.26	4.40	4.40	
1.97	1.87	1.82	1.87	2.01	2.21	2.59	2.59	2.15	2.18	2.13	1.98	2.14	2.17	2.00	1.98	1.97	1.88	1.90	1.95	1.99	2.05	1.91	1.82	1.86	1.79	1.69	1.63	1.72	1.69	1.70	1.84	1.80	1.68	1.65	1.72	1.84	1.89	1.92	1.82	1.73	1.95	1.97	1.91	2.04	2.16	2.29	2.43	2.54	2.62	2.65	2.60	2.48	2.49	2.64	2.88	2.97	3.30	3.89	3.75	3.90	4.11	4.27	4.55	4.38	4.45	4.89	5.14	4.98	5.00	4.94	4.69	4.40	3.79	3.56	3.84	4.29	4.85	5.39	5.64	5.60	5.51	5.56	5.76	5.61	5.44	5.43	5.33	5.19	5.10	5.10	5.07	5.04	5.12	4.79	4.39	4.56	4.57	4.54	4.71	4.75	4.59	4.47	4.56	4.50	4.30	4.29	4.28	4.13	4.28	4.33	4.40	4.66	4.61	4.68	4.77	4.97	4.74	4.30	4.25	4.21	3.90	3.79	4.14	4.33	4.36	4.36	4.36	
2.06	2.01	1.92	1.83	1.82	1.98	2.47	2.70	2.30	2.13	2.12	1.96	1.94	2.03	1.97	1.91	1.89	1.85	1.85	1.86	1.81	1.92	1.87	1.71	1.86	1.85	1.76	1.65	1.64	1.64	1.58	1.69	1.70	1.62	1.57	1.55	1.59	1.67	1.73	1.77	1.66	1.66	1.78	1.78	1.84	1.93	2.02	2.14	2.24	2.30	2.30	2.26	2.14	2.16	2.34	2.47	2.55	2.88	3.28	3.31	3.54	3.77	3.92	4.11	3.90	3.92	4.34	4.62	4.54	4.62	4.75	4.40	4.11	3.80	3.53	3.70	4.37	5.52	5.74	5.27	5.16	5.28	5.36	5.51	5.53	5.37	5.31	5.27	5.14	5.05	5.08	5.07	4.97	4.98	4.83	4.58	4.50	4.41	4.37	4.52	4.67	4.53	4.35	4.47	4.52	4.38	4.31	4.27	4.13	4.20	4.25	4.22	4.47	4.50	4.45	4.67	4.90	4.75	4.50	4.42	4.54	4.32	3.87	4.02	4.25	4.44	4.60	4.60	
2.08	2.04	1.99	1.92	1.78	1.75	2.15	2.67	2.54	2.18	2.09	2.04	1.95	1.89	1.86	1.88	1.84	1.81	1.86	1.88	1.73	1.77	1.79	1.63	1.70	1.71	1.70	1.65	1.55	1.51	1.50	1.57	1.53	1.52	1.56	1.51	1.45	1.49	1.51	1.57	1.61	1.53	1.55	1.58	1.62	1.69	1.75	1.85	1.94	2.00	2.00	1.98	1.86	1.84	2.07	2.16	2.12	2.36	2.64	2.61	2.83	3.20	3.43	3.83	3.70	3.49	3.80	4.02	4.09	4.16	4.30	4.04	3.59	3.46	3.49	3.76	4.41	5.18	5.27	5.06	5.03	5.13	5.35	5.39	5.40	5.34	5.23	5.21	5.14	5.01	4.99	4.97	4.95	4.91	4.75	4.69	4.56	4.39	4.33	4.41	4.57	4.47	4.35	4.35	4.43	4.43	4.35	4.28	4.12	4.17	4.24	4.15	4.34	4.44	4.22	4.48	4.83	4.75	4.51	4.25	4.35	4.38	4.06	4.04	4.09	4.22	4.44	4.44	
2.10	2.07	2.03	1.98	1.86	1.71	1.84	2.35	2.67	2.49	2.24	2.13	2.10	1.98	1.84	1.83	1.83	1.78	1.84	1.95	1.83	1.73	1.69	1.58	1.62	1.59	1.55	1.61	1.53	1.39	1.41	1.51	1.46	1.39	1.44	1.42	1.34	1.35	1.35	1.34	1.38	1.37	1.35	1.35	1.38	1.42	1.48	1.56	1.65	1.72	1.74	1.70	1.58	1.52	1.75	1.94	1.94	1.94	2.17	2.31	2.44	2.76	2.92	3.28	3.39	3.15	3.27	3.51	3.65	3.71	3.74	3.33	3.04	3.18	3.47	3.97	4.52	4.98	5.18	5.25	5.27	5.20	5.37	5.40	5.33	5.32	5.19	5.14	5.10	5.03	5.01	4.87	4.85	4.87	4.68	4.67	4.63	4.45	4.35	4.40	4.53	4.46	4.42	4.35	4.31	4.34	4.33	4.26	4.10	4.12	4.12	4.07	4.25	4.38	4.19	4.16	4.35	4.50	4.49	4.24	4.15	4.15	4.11	4.16	4.24	4.20	4.13	4.13	
2.10	2.07	2.04	2.00	1.93	1.80	1.72	1.93	2.34	2.57	2.47	2.21	2.12	2.06	1.90	1.83	1.83	1.77	1.76	1.89	1.91	1.78	1.65	1.57	1.62	1.61	1.49	1.56	1.60	1.43	1.33	1.40	1.41	1.31	1.28	1.27	1.23	1.20	1.18	1.16	1.14	1.13	1.12	1.11	1.11	1.14	1.20	1.29	1.39	1.48	1.55	1.55	1.41	1.23	1.30	1.54	1.74	1.76	1.90	2.12	2.26	2.48	2.55	2.69	2.97	2.94	2.90	3.01	3.10	3.13	3.01	1.73	2.42	3.45	3.82	4.30	4.75	4.95	5.18	5.48	5.64	5.49	5.44	5.43	5.35	5.30	5.17	5.10	5.05	5.03	5.12	4.98	4.85	4.92	4.78	4.66	4.67	4.52	4.34	4.37	4.49	4.43	4.44	4.45	4.30	4.24	4.30	4.27	4.13	4.15	4.03	3.97	4.11	4.24	4.31	4.21	4.15	4.29	4.45	4.38	4.17	3.97	4.03	4.26	4.41	4.43	4.37	4.37	
2.09	2.07	2.05	2.02	1.97	1.88	1.74	1.71	1.86	2.16	2.39	2.24	2.05	1.96	1.89	1.82	1.81	1.79	1.73	1.81	1.89	1.81	1.62	1.53	1.59	1.59	1.42	1.40	1.45	1.40	1.26	1.22	1.25	1.23	1.21	1.16	1.12	1.07	1.03	1.00	0.96	0.91	0.87	0.85	0.85	0.88	0.96	1.04	1.14	1.22	1.30	1.43	1.45	1.23	1.05	1.11	1.30	1.47	1.66	1.85	1.99	2.19	2.23	2.37	2.68	2.78	2.72	2.74	2.70	2.66	2.74	2.83	3.41	4.03	4.38	4.64	4.93	5.01	5.14	5.49	5.61	5.51	5.34	5.26	5.27	5.24	5.12	4.99	4.94	4.97	5.09	5.03	4.88	4.92	4.85	4.70	4.70	4.62	4.39	4.31	4.42	4.41	4.40	4.52	4.36	4.21	4.32	4.33	4.21	4.21	4.07	3.96	3.97	4.04	4.27	4.27	4.16	4.22	4.37	4.46	4.32	3.97	3.87	4.14	4.25	4.35	4.50	4.50	
2.09	2.07	2.05	2.02	1.98	1.94	1.84	1.74	1.70	1.82	2.11	2.18	2.05	1.91	1.84	1.79	1.78	1.76	1.66	1.71	1.81	1.85	1.70	1.47	1.48	1.51	1.40	1.35	1.32	1.29	1.24	1.17	1.13	1.11	1.11	1.07	1.02	0.98	0.93	0.87	0.80	0.72	0.65	0.60	0.60	0.65	0.72	0.82	0.92	1.07	1.29	1.51	1.60	1.46	1.18	1.05	1.09	1.21	1.41	1.63	1.80	1.98	2.20	2.42	2.61	2.69	2.64	2.62	2.67	2.65	2.82	3.49	4.05	4.31	4.68	4.91	5.09	5.29	5.67	6.33	5.47	5.35	5.24	5.12	5.08	5.11	5.07	4.91	4.76	4.81	4.97	4.94	4.82	4.81	4.78	4.68	4.60	4.59	4.48	4.32	4.34	4.41	4.40	4.55	4.45	4.19	4.26	4.39	4.29	4.21	4.19	4.09	4.03	3.99	4.13	4.23	4.12	4.14	4.23	4.33	4.34	4.08	3.90	4.03	4.14	4.25	4.38	4.38	
2.08	2.06	2.05	2.03	1.99	1.96	1.91	1.84	1.77	1.75	1.88	2.02	2.00	1.88	1.79	1.72	1.72	1.70	1.61	1.59	1.60	1.69	1.70	1.53	1.45	1.42	1.34	1.32	1.29	1.23	1.17	1.14	1.08	1.01	0.99	0.97	0.95	0.91	0.86	0.78	0.68	0.56	0.46	0.41	0.43	0.51	0.62	0.75	0.93	1.27	1.69	1.88	1.73	1.38	1.06	0.93	1.01	1.15	1.29	1.48	1.68	1.89	2.14	2.36	2.51	2.61	2.61	2.59	2.73	2.90	3.09	3.66	4.21	4.40	4.72	5.10	5.29	5.49	5.65	5.58	5.19	5.03	5.04	5.05	4.98	4.99	5.01	4.87	4.69	4.64	4.76	4.83	4.81	4.76	4.74	4.70	4.57	4.50	4.46	4.29	4.18	4.28	4.34	4.48	4.50	4.25	4.19	4.37	4.38	4.21	4.25	4.25	4.24	4.15	4.09	4.25	4.17	4.13	4.18	4.24	4.24	4.09	3.99	4.03	4.13	4.24	4.31	4.31	
2.07	2.05	2.04	2.02	2.00	1.97	1.94	1.90	1.86	1.81	1.80	1.85	1.88	1.84	1.75	1.65	1.61	1.61	1.57	1.52	1.46	1.46	1.48	1.45	1.42	1.36	1.27	1.20	1.17	1.12	1.05	1.01	0.98	0.95	0.94	0.93	0.93	0.90	0.83	0.73	0.60	0.46	0.36	0.38	0.50	0.64	0.79	0.93	1.18	1.53	1.81	1.85	1.86	1.89	1.26	1.10	1.12	1.22	1.35	1.49	1.67	1.89	2.12	2.32	2.44	2.54	2.58	2.60	2.74	2.96	3.28	3.69	4.16	4.47	4.74	5.10	5.33	5.46	5.45	5.24	5.00	4.78	4.71	4.88	4.92	4.91	4.94	4.80	4.67	4.59	4.56	4.62	4.70	4.69	4.69	4.71	4.62	4.51	4.48	4.31	4.00	4.01	4.10	4.26	4.38	4.27	4.18	4.26	4.36	4.26	4.23	4.24	4.29	4.21	4.08	4.19	4.20	4.13	4.13	4.18	4.18	4.09	4.03	4.04	4.08	4.19	4.25	4.25	
2.06	2.04	2.03	2.02	1.99	1.97	1.94	1.91	1.89	1.86	1.84	1.81	1.80	1.78	1.72	1.64	1.58	1.55	1.53	1.49	1.45	1.40	1.35	1.31	1.30	1.27	1.20	1.13	1.08	1.03	0.98	0.94	0.93	0.93	0.94	0.96	0.96	0.94	0.88	0.76	0.62	0.47	0.43	0.55	0.77	0.99	1.15	1.28	1.48	1.64	1.74	1.73	1.91	2.62	1.67	1.49	1.39	1.36	1.43	1.55	1.72	1.91	2.12	2.29	2.40	2.52	2.59	2.66	2.82	3.03	3.34	3.69	4.07	4.40	4.66	4.98	5.22	5.29	5.26	5.13	5.02	4.83	4.56	4.60	4.67	4.70	4.80	4.71	4.61	4.57	4.50	4.46	4.50	4.53	4.53	4.57	4.62	4.56	4.59	4.53	4.07	3.88	3.93	4.00	4.08	4.06	4.07	4.13	4.20	4.22	4.19	4.18	4.23	4.18	4.08	4.11	4.15	4.13	4.11	4.12	4.13	4.11	4.06	4.05	4.07	4.14	4.20	4.20	
2.05	2.03	2.02	2.01	1.99	1.97	1.94	1.92	1.89	1.87	1.84	1.81	1.78	1.74	1.70	1.65	1.59	1.54	1.51	1.48	1.44	1.40	1.34	1.27	1.23	1.19	1.14	1.08	1.04	0.99	0.95	0.92	0.92	0.94	0.98	1.02	1.05	1.06	1.01	0.90	0.74	0.59	0.60	0.82	1.13	1.42	1.61	1.71	1.76	1.74	1.70	1.54	1.33	1.45	1.61	1.64	1.55	1.50	1.53	1.62	1.76	1.93	2.10	2.25	2.37	2.50	2.61	2.72	2.89	3.12	3.38	3.67	4.02	4.29	4.50	4.77	5.01	5.08	5.05	4.95	4.90	4.84	4.61	4.49	4.49	4.50	4.59	4.60	4.56	4.53	4.49	4.45	4.43	4.45	4.44	4.42	4.54	4.61	4.73	4.84	4.47	4.06	4.07	4.12	4.02	3.92	3.89	3.97	4.04	4.09	4.12	4.13	4.15	4.13	4.09	4.09	4.11	4.10	4.11	4.11	4.10	4.09	4.06	4.05	4.06	4.11	4.16	4.16	
2.04	2.02	2.01	2.00	1.98	1.96	1.94	1.91	1.89	1.86	1.83	1.80	1.76	1.72	1.68	1.63	1.58	1.52	1.47	1.44	1.41	1.37	1.32	1.25	1.20	1.15	1.10	1.04	0.98	0.94	0.91	0.90	0.92	0.96	1.04	1.12	1.20	1.25	1.23	1.13	0.98	0.82	0.81	1.10	1.54	1.90	2.12	2.16	2.05	1.88	1.71	1.41	1.13	1.23	1.49	1.63	1.62	1.58	1.60	1.67	1.78	1.91	2.07	2.22	2.35	2.48	2.62	2.76	2.94	3.16	3.41	3.68	3.98	4.22	4.38	4.56	4.74	4.82	4.78	4.69	4.62	4.62	4.58	4.48	4.43	4.40	4.43	4.49	4.49	4.47	4.45	4.43	4.41	4.44	4.43	4.34	4.35	4.45	4.67	4.94	4.89	4.47	4.32	4.48	4.37	4.02	3.84	3.85	3.91	3.98	4.02	4.06	4.08	4.08	4.07	4.08	4.08	4.06	4.07	4.07	4.07	4.06	4.04	4.05	4.05	4.07	4.11	4.11	
2.02	2.01	2.00	1.99	1.97	1.95	1.93	1.90	1.88	1.85	1.82	1.78	1.75	1.71	1.67	1.63	1.58	1.53	1.47	1.42	1.37	1.33	1.28	1.23	1.17	1.11	1.06	1.00	0.94	0.90	0.88	0.89	0.93	1.01	1.13	1.26	1.38	1.48	1.51	1.46	1.37	1.21	1.07	1.38	1.98	2.45	2.65	2.60	2.37	2.07	1.78	1.46	1.20	1.23	1.43	1.57	1.61	1.63	1.66	1.72	1.81	1.92	2.05	2.20	2.34	2.47	2.60	2.75	2.94	3.15	3.37	3.62	3.90	4.15	4.30	4.44	4.57	4.65	4.60	4.51	4.44	4.38	4.40	4.42	4.39	4.32	4.32	4.39	4.41	4.41	4.39	4.37	4.34	4.39	4.40	4.32	4.26	4.21	4.32	4.58	4.73	4.53	4.28	4.44	4.58	4.20	3.88	3.80	3.86	3.96	3.99	4.02	4.04	4.04	4.04	4.06	4.05	4.03	4.03	4.04	4.04	4.04	4.03	4.02	4.02	4.00	3.99	3.99	
2.01	2.00	1.99	1.98	1.96	1.94	1.92	1.89	1.87	1.84	1.80	1.77	1.73	1.70	1.65	1.61	1.56	1.51	1.46	1.41	1.35	1.30	1.25	1.20	1.14	1.08	1.02	0.96	0.91	0.87	0.86	0.89	0.96	1.08	1.23	1.39	1.57	1.72	1.82	1.88	1.91	1.80	1.54	1.78	2.51	3.02	3.15	2.98	2.65	2.25	1.91	1.64	1.40	1.32	1.43	1.53	1.59	1.64	1.69	1.75	1.83	1.93	2.04	2.16	2.29	2.42	2.57	2.76	2.95	3.13	3.35	3.57	3.78	4.00	4.15	4.27	4.39	4.46	4.41	4.31	4.33	4.34	4.30	4.40	4.49	4.40	4.32	4.32	4.30	4.28	4.28	4.28	4.22	4.22	4.28	4.25	4.20	4.13	4.12	4.29	4.45	4.39	4.22	4.33	4.56	4.38	4.04	3.77	3.83	3.98	3.98	4.00	4.00	4.00	4.01	4.03	4.03	4.02	3.99	3.99	3.99	3.97	4.01	4.06	4.06	3.95	3.83	3.83	
2.00	1.98	1.98	1.97	1.95	1.93	1.91	1.88	1.86	1.82	1.79	1.76	1.72	1.68	1.64	1.60	1.55	1.50	1.45	1.39	1.34	1.28	1.23	1.17	1.11	1.05	0.99	0.93	0.88	0.85	0.85	0.89	0.98	1.13	1.31	1.52	1.74	1.94	2.13	2.33	2.54	2.58	2.42	2.79	3.39	3.53	3.49	3.20	2.79	2.35	1.99	1.81	1.60	1.43	1.44	1.50	1.57	1.63	1.69	1.78	1.88	2.01	2.17	2.32	2.44	2.53	2.63	2.82	3.06	3.20	3.37	3.56	3.73	3.88	4.00	4.10	4.25	4.46	4.52	4.47	4.49	4.54	4.41	4.37	4.48	4.51	4.46	4.37	4.31	4.28	4.27	4.34	4.34	4.24	4.17	4.13	4.14	4.13	4.09	4.15	4.30	4.37	4.29	4.32	4.47	4.50	4.33	3.97	3.87	3.99	3.99	3.97	3.98	3.98	3.98	4.00	4.00	4.00	3.97	3.96	3.96	3.89	3.86	4.02	4.23	4.10	3.91	3.91	
1.99	1.97	1.97	1.96	1.94	1.92	1.90	1.87	1.84	1.81	1.78	1.75	1.71	1.67	1.63	1.58	1.54	1.49	1.43	1.38	1.32	1.27	1.21	1.15	1.08	1.02	0.96	0.90	0.85	0.82	0.83	0.88	0.99	1.15	1.37	1.61	1.84	2.11	2.41	2.72	3.07	3.31	3.47	5.02	5.16	3.68	3.46	3.17	2.76	2.34	2.01	1.79	1.61	1.49	1.48	1.49	1.54	1.61	1.72	1.87	2.05	2.21	2.40	2.61	2.77	2.86	2.85	2.87	3.05	3.21	3.35	3.53	3.72	3.85	3.99	4.13	4.29	4.59	4.80	4.81	4.78	4.76	4.63	4.40	4.35	4.47	4.65	4.70	4.60	4.51	4.46	4.45	4.50	4.52	4.33	4.14	4.13	4.14	4.11	4.08	4.13	4.28	4.42	4.37	4.30	4.43	4.41	4.17	4.01	4.03	4.03	3.96	3.94	3.95	3.96	3.95	3.94	3.96	3.95	3.96	4.04	3.93	3.66	3.73	4.07	4.19	4.17	4.17	
1.98	1.96	1.96	1.95	1.93	1.91	1.89	1.86	1.83	1.80	1.77	1.73	1.70	1.66	1.61	1.57	1.52	1.47	1.42	1.36	1.31	1.25	1.19	1.13	1.06	1.00	0.93	0.87	0.82	0.80	0.80	0.87	0.98	1.16	1.39	1.63	1.89	2.22	2.57	2.93	3.32	3.62	3.75	4.18	3.74	2.95	2.99	2.86	2.56	2.24	1.98	1.78	1.61	1.52	1.50	1.52	1.58	1.69	1.85	2.02	2.17	2.27	2.34	2.47	2.65	2.84	2.91	2.89	2.98	3.14	3.29	3.48	3.73	3.88	4.01	4.14	4.17	4.24	4.40	4.50	4.57	4.65	4.74	4.66	4.45	4.42	4.53	4.70	4.69	4.52	4.45	4.38	4.35	4.51	4.46	4.23	4.18	4.14	4.03	3.97	3.95	4.01	4.30	4.36	4.14	4.17	4.22	4.12	4.05	4.06	4.07	4.01	3.95	3.92	3.90	3.92	3.88	3.85	3.84	3.84	4.08	4.13	3.68	3.57	3.73	3.87	4.05	4.05	
1.97	1.95	1.95	1.94	1.92	1.90	1.88	1.85	1.82	1.79	1.76	1.72	1.69	1.65	1.60	1.56	1.51	1.46	1.41	1.35	1.30	1.24	1.18	1.11	1.04	0.98	0.91	0.85	0.80	0.77	0.78	0.84	0.96	1.14	1.36	1.60	1.89	2.23	2.58	2.92	3.25	3.45	3.33	2.85	2.13	1.98	2.31	2.38	2.25	2.08	1.90	1.74	1.59	1.52	1.50	1.55	1.66	1.78	1.87	1.93	2.00	2.08	2.14	2.22	2.37	2.57	2.74	2.85	2.96	3.11	3.23	3.38	3.63	3.79	3.85	3.87	3.87	3.86	3.91	3.99	4.09	4.16	4.31	4.49	4.37	4.19	4.13	4.21	4.29	4.27	4.24	4.25	4.24	4.28	4.31	4.22	4.21	4.23	4.01	3.81	3.84	3.87	4.03	4.16	4.11	4.06	4.06	4.01	3.96	4.00	4.05	4.07	4.06	4.03	3.95	3.93	3.94	3.83	3.72	3.64	3.87	4.17	3.79	3.65	3.82	3.73	3.70	3.70	
1.96	1.95	1.94	1.93	1.91	1.89	1.87	1.85	1.82	1.78	1.75	1.72	1.68	1.64	1.59	1.55	1.50	1.45	1.40	1.35	1.29	1.23	1.17	1.10	1.03	0.96	0.89	0.83	0.77	0.74	0.75	0.81	0.92	1.09	1.29	1.53	1.81	2.12	2.44	2.72	2.95	3.01	2.77	2.19	1.52	1.38	1.70	1.88	1.91	1.86	1.76	1.64	1.52	1.45	1.43	1.49	1.60	1.69	1.73	1.76	1.83	1.95	2.07	2.19	2.34	2.50	2.66	2.79	2.91	3.07	3.18	3.24	3.36	3.48	3.57	3.65	3.69	3.70	3.71	3.75	3.82	3.83	3.81	3.92	4.00	3.95	3.97	4.03	4.03	4.10	4.07	4.02	4.08	4.09	4.05	4.05	4.18	4.33	4.26	3.97	3.91	3.95	4.00	4.03	4.04	4.11	4.12	4.02	3.93	3.90	3.93	4.03	4.09	4.15	4.14	4.04	4.03	3.88	3.66	3.58	3.73	4.06	3.88	3.70	3.98	3.85	3.56	3.56	
1.95	1.94	1.93	1.92	1.91	1.89	1.86	1.84	1.81	1.78	1.74	1.71	1.67	1.63	1.59	1.54	1.50	1.45	1.39	1.34	1.28	1.22	1.16	1.09	1.03	0.96	0.89	0.82	0.76	0.73	0.72	0.77	0.86	1.01	1.20	1.42	1.67	1.93	2.19	2.40	2.52	2.50	2.23	1.74	1.22	1.06	1.26	1.47	1.59	1.63	1.59	1.50	1.42	1.38	1.39	1.44	1.50	1.58	1.67	1.75	1.84	1.96	2.09	2.22	2.37	2.51	2.65	2.77	2.85	2.96	3.10	3.17	3.23	3.33	3.41	3.53	3.62	3.65	3.65	3.67	3.70	3.75	3.76	3.75	3.76	3.76	3.84	3.94	3.89	3.96	4.07	4.02	4.01	4.13	4.10	4.01	4.15	4.25	4.27	4.19	4.13	4.01	4.01	4.05	3.95	4.05	4.22	4.16	4.00	3.93	3.90	3.93	3.94	3.96	4.15	4.21	4.16	3.98	3.62	3.54	3.72	3.95	3.93	3.71	3.86	3.81	3.51	3.51	
1.95	1.93	1.93	1.92	1.90	1.88	1.86	1.83	1.80	1.77	1.74	1.70	1.66	1.62	1.58	1.54	1.49	1.44	1.39	1.34	1.28	1.22	1.16	1.09	1.02	0.95	0.89	0.82	0.77	0.73	0.71	0.73	0.80	0.92	1.08	1.27	1.48	1.69	1.88	2.03	2.08	2.01	1.76	1.39	1.01	0.86	0.98	1.18	1.33	1.43	1.44	1.43	1.44	1.45	1.48	1.51	1.53	1.58	1.68	1.79	1.89	2.00	2.12	2.25	2.38	2.50	2.62	2.74	2.83	2.90	3.03	3.13	3.23	3.34	3.40	3.45	3.53	3.57	3.54	3.57	3.60	3.63	3.76	3.81	3.66	3.61	3.75	3.92	3.83	3.81	4.09	4.18	4.18	4.26	4.31	4.22	4.21	4.21	4.11	4.17	4.37	4.12	3.88	3.96	3.91	3.90	4.10	4.25	4.06	3.89	3.94	4.03	3.93	3.83	4.07	4.31	4.32	4.12	3.76	3.53	3.68	3.79	3.83	3.81	3.85	3.84	3.65	3.65	
1.94	1.93	1.92	1.91	1.89	1.88	1.85	1.83	1.80	1.77	1.73	1.70	1.66	1.62	1.58	1.53	1.49	1.44	1.39	1.33	1.28	1.22	1.16	1.10	1.03	0.96	0.89	0.82	0.76	0.71	0.68	0.68	0.72	0.81	0.94	1.09	1.26	1.43	1.56	1.65	1.67	1.58	1.37	1.08	0.82	0.71	0.81	0.98	1.14	1.26	1.34	1.40	1.45	1.47	1.48	1.51	1.55	1.61	1.70	1.81	1.92	2.03	2.14	2.26	2.38	2.50	2.61	2.72	2.82	2.92	3.06	3.14	3.24	3.37	3.46	3.47	3.53	3.57	3.45	3.42	3.47	3.50	3.64	3.95	3.83	3.58	3.65	3.96	4.04	3.89	4.04	4.03	3.99	4.03	4.10	4.21	4.28	4.31	4.12	4.08	4.44	4.43	4.02	3.88	3.90	3.84	3.87	4.14	4.09	3.84	3.88	4.09	3.95	3.73	4.04	4.37	4.43	4.19	3.89	3.55	3.65	3.79	3.76	3.86	3.92	3.95	3.88	3.88	
1.94	1.92	1.92	1.91	1.89	1.87	1.85	1.82	1.80	1.76	1.73	1.70	1.66	1.62	1.58	1.53	1.49	1.44	1.39	1.34	1.28	1.22	1.16	1.11	1.04	0.97	0.90	0.83	0.76	0.70	0.66	0.64	0.66	0.71	0.80	0.92	1.04	1.16	1.25	1.30	1.29	1.21	1.04	0.83	0.65	0.61	0.70	0.86	1.02	1.15	1.23	1.28	1.30	1.32	1.36	1.42	1.52	1.63	1.73	1.84	1.95	2.06	2.17	2.27	2.38	2.50	2.60	2.69	2.79	2.88	3.04	3.13	3.18	3.33	3.51	3.54	3.63	3.70	3.61	3.52	3.46	3.52	3.57	3.94	4.15	3.93	3.74	3.91	4.10	3.97	4.04	4.00	3.85	3.84	3.89	4.00	4.14	4.30	4.23	4.14	4.35	4.61	4.48	4.18	4.11	4.06	3.94	4.05	4.01	3.81	3.81	3.97	3.85	3.47	3.78	4.31	4.53	4.43	4.13	3.79	3.72	3.89	3.81	3.66	3.78	4.00	4.06	4.06	
1.94	1.92	1.92	1.91	1.89	1.87	1.85	1.82	1.79	1.76	1.73	1.70	1.66	1.62	1.58	1.54	1.49	1.44	1.39	1.34	1.29	1.23	1.17	1.11	1.05	0.98	0.91	0.85	0.78	0.72	0.66	0.63	0.61	0.63	0.68	0.75	0.84	0.91	0.97	0.99	0.97	0.89	0.77	0.63	0.53	0.54	0.65	0.80	0.94	1.07	1.15	1.20	1.23	1.27	1.34	1.44	1.54	1.65	1.76	1.87	1.99	2.09	2.19	2.29	2.38	2.49	2.59	2.67	2.75	2.81	2.92	3.04	3.10	3.28	3.55	3.64	3.87	3.98	3.89	3.84	3.77	3.73	3.67	3.77	4.01	4.14	3.94	3.80	3.88	3.83	3.93	4.04	3.92	3.83	3.82	3.88	3.95	4.08	4.14	4.09	4.11	4.30	4.42	4.29	4.24	4.30	4.26	4.30	4.14	3.88	3.92	3.96	3.81	3.32	3.32	3.80	4.15	4.38	4.30	4.17	4.08	4.13	4.06	3.66	3.61	3.98	4.19	4.19	
1.93	1.92	1.91	1.90	1.89	1.87	1.85	1.82	1.79	1.76	1.73	1.70	1.66	1.62	1.58	1.54	1.49	1.45	1.40	1.35	1.30	1.24	1.18	1.12	1.06	1.00	0.93	0.87	0.80	0.73	0.67	0.62	0.59	0.58	0.59	0.62	0.66	0.70	0.73	0.73	0.70	0.64	0.56	0.48	0.46	0.52	0.64	0.78	0.91	1.02	1.11	1.18	1.24	1.31	1.39	1.48	1.58	1.68	1.77	1.87	1.99	2.10	2.20	2.30	2.38	2.47	2.57	2.66	2.74	2.81	2.89	2.99	2.97	3.04	3.38	3.54	3.77	4.06	4.06	3.83	3.72	3.66	3.57	3.53	3.54	3.73	3.73	3.63	3.65	3.68	3.70	3.82	3.86	3.80	3.75	3.74	3.81	3.86	3.90	3.93	3.93	4.02	4.10	4.04	3.96	4.03	4.14	4.31	4.37	4.27	4.30	4.30	4.06	3.62	3.42	3.56	3.79	4.04	3.99	3.82	3.88	4.07	4.18	3.89	3.55	3.87	4.21	4.21	
1.93	1.92	1.91	1.90	1.89	1.87	1.85	1.82	1.79	1.76	1.73	1.70	1.66	1.63	1.59	1.54	1.50	1.46	1.41	1.36	1.31	1.25	1.20	1.14	1.08	1.02	0.96	0.89	0.83	0.76	0.70	0.64	0.59	0.56	0.53	0.53	0.54	0.55	0.55	0.54	0.51	0.47	0.43	0.42	0.46	0.55	0.66	0.79	0.91	1.01	1.10	1.18	1.26	1.34	1.42	1.51	1.60	1.70	1.79	1.88	1.98	2.08	2.19	2.29	2.39	2.47	2.56	2.66	2.74	2.81	2.87	2.98	2.97	2.82	2.92	3.08	3.19	3.55	3.86	3.63	3.45	3.43	3.38	3.26	3.30	3.65	3.86	3.82	3.64	3.67	3.65	3.64	3.72	3.74	3.73	3.69	3.73	3.79	3.81	3.84	3.88	3.93	3.93	3.93	3.80	3.66	3.75	3.86	3.92	3.97	4.11	4.27	4.29	4.14	3.99	3.84	3.83	4.06	4.06	3.72	3.62	3.76	3.94	3.99	3.63	3.74	4.10	4.10	
1.93	1.92	1.91	1.90	1.89	1.87	1.85	1.82	1.80	1.77	1.74	1.70	1.67	1.63	1.59	1.55	1.51	1.47	1.42	1.37	1.32	1.27	1.22	1.16	1.10	1.05	0.98	0.92	0.86	0.80	0.73	0.67	0.62	0.57	0.53	0.50	0.48	0.47	0.45	0.44	0.42	0.41	0.41	0.45	0.51	0.60	0.71	0.82	0.93	1.03	1.12	1.20	1.29	1.37	1.45	1.54	1.63	1.72	1.82	1.91	2.00	2.09	2.19	2.29	2.39	2.48	2.55	2.66	2.74	2.82	2.87	2.91	2.99	2.92	2.85	2.86	2.87	3.19	3.66	3.54	3.36	3.43	3.54	3.42	3.23	3.39	3.77	3.99	3.89	3.84	3.78	3.69	3.67	3.68	3.68	3.69	3.72	3.76	3.78	3.79	3.86	3.90	3.85	4.00	4.04	3.81	3.76	3.87	3.88	3.85	3.93	4.01	4.09	4.11	4.04	3.88	3.71	3.89	4.17	4.05	3.86	3.75	3.75	4.02	3.89	3.79	4.01	4.01	
1.93	1.92	1.91	1.91	1.89	1.87	1.85	1.83	1.80	1.77	1.74	1.71	1.67	1.64	1.60	1.56	1.52	1.48	1.43	1.39	1.34	1.29	1.24	1.18	1.13	1.08	1.02	0.96	0.90	0.84	0.78	0.72	0.67	0.62	0.57	0.53	0.50	0.47	0.45	0.44	0.43	0.44	0.47	0.52	0.59	0.68	0.77	0.87	0.97	1.06	1.15	1.23	1.32	1.40	1.48	1.57	1.66	1.75	1.84	1.93	2.02	2.12	2.21	2.29	2.37	2.47	2.55	2.67	2.74	2.83	2.89	2.84	2.82	2.87	2.98	3.01	2.91	3.08	3.65	3.71	3.40	3.40	3.53	3.58	3.39	3.12	3.30	3.65	3.80	3.87	3.84	3.78	3.73	3.72	3.68	3.66	3.72	3.77	3.80	3.76	3.89	3.94	3.78	3.91	4.10	4.09	3.99	4.05	4.18	4.24	4.32	4.33	4.28	4.21	4.01	3.75	3.63	3.69	3.86	3.93	3.95	3.74	3.46	3.75	3.95	3.86	3.89	3.89	
1.93	1.92	1.92	1.91	1.89	1.87	1.85	1.83	1.81	1.78	1.75	1.71	1.68	1.65	1.61	1.57	1.53	1.49	1.45	1.40	1.36	1.31	1.26	1.21	1.16	1.11	1.06	1.00	0.94	0.89	0.83	0.78	0.73	0.68	0.63	0.59	0.56	0.53	0.51	0.51	0.51	0.53	0.57	0.62	0.68	0.76	0.84	0.93	1.02	1.10	1.19	1.27	1.36	1.44	1.52	1.61	1.69	1.78	1.86	1.95	2.04	2.13	2.22	2.30	2.38	2.46	2.51	2.60	2.71	2.85	3.04	3.01	2.68	2.42	2.59	2.98	3.04	2.99	3.46	3.87	3.70	3.57	3.54	3.57	3.61	3.41	3.31	3.43	3.57	3.72	3.80	3.76	3.69	3.69	3.68	3.65	3.67	3.74	3.83	3.81	3.97	4.01	3.71	3.63	3.76	3.87	3.79	3.72	3.71	3.72	3.89	4.04	4.28	4.50	4.41	3.87	3.60	3.82	3.88	3.72	3.99	3.93	3.29	3.34	3.84	3.87	3.69	3.69	
1.94	1.92	1.92	1.91	1.89	1.88	1.86	1.84	1.81	1.78	1.75	1.72	1.69	1.66	1.62	1.58	1.55	1.51	1.47	1.42	1.38	1.33	1.29	1.24	1.19	1.14	1.10	1.04	0.99	0.94	0.89	0.84	0.79	0.75	0.71	0.67	0.64	0.62	0.60	0.60	0.61	0.63	0.67	0.72	0.78	0.84	0.92	0.99	1.07	1.15	1.23	1.31	1.40	1.48	1.56	1.64	1.72	1.80	1.89	1.97	2.05	2.14	2.23	2.31	2.40	2.51	2.54	2.54	2.62	2.78	3.26	3.65	3.28	2.63	2.45	2.83	3.02	2.82	3.05	3.50	3.63	3.62	3.59	3.56	3.58	3.54	3.42	3.42	3.48	3.56	3.71	3.75	3.65	3.62	3.64	3.64	3.63	3.65	3.70	3.72	3.96	4.12	3.82	3.53	3.60	3.69	3.54	3.49	3.44	3.40	3.44	3.46	3.68	4.06	4.50	4.26	3.68	3.84	4.11	3.73	3.89	4.24	3.62	3.29	3.80	3.98	3.78	3.78	
1.94	1.93	1.92	1.91	1.90	1.88	1.86	1.84	1.82	1.79	1.76	1.73	1.70	1.67	1.63	1.60	1.56	1.52	1.48	1.44	1.40	1.36	1.31	1.27	1.22	1.18	1.14	1.09	1.04	0.99	0.94	0.90	0.86	0.82	0.78	0.75	0.73	0.71	0.70	0.70	0.71	0.73	0.77	0.81	0.87	0.93	0.99	1.06	1.14	1.21	1.28	1.36	1.44	1.51	1.59	1.67	1.75	1.83	1.91	1.99	2.07	2.15	2.23	2.31	2.38	2.51	2.65	2.57	2.52	2.45	2.77	3.58	3.92	3.77	3.35	3.23	3.23	2.95	2.97	3.20	3.33	3.41	3.45	3.47	3.48	3.47	3.42	3.37	3.38	3.39	3.52	3.70	3.68	3.60	3.59	3.59	3.61	3.63	3.60	3.53	3.73	4.08	3.93	3.57	3.60	3.78	3.68	3.48	3.37	3.44	3.47	3.33	3.37	3.51	3.92	4.19	3.81	3.77	4.08	3.79	3.68	4.13	3.82	3.36	3.70	4.00	3.97	3.97	
1.94	1.93	1.93	1.92	1.90	1.89	1.87	1.85	1.83	1.80	1.77	1.74	1.71	1.68	1.65	1.61	1.58	1.54	1.50	1.47	1.43	1.39	1.34	1.30	1.26	1.22	1.18	1.14	1.09	1.05	1.00	0.96	0.93	0.89	0.86	0.84	0.82	0.80	0.80	0.80	0.81	0.83	0.86	0.90	0.95	1.01	1.07	1.13	1.20	1.27	1.34	1.41	1.48	1.56	1.63	1.71	1.78	1.86	1.94	2.02	2.10	2.18	2.24	2.30	2.35	2.41	2.60	2.64	2.50	2.24	2.11	2.52	3.12	3.58	3.61	3.52	3.42	3.18	3.10	3.18	3.26	3.31	3.34	3.37	3.40	3.39	3.37	3.37	3.36	3.33	3.35	3.50	3.57	3.53	3.52	3.51	3.52	3.55	3.62	3.61	3.70	4.00	3.86	3.61	3.62	3.77	4.00	3.76	3.31	3.37	3.59	3.44	3.33	3.43	3.62	3.87	3.77	3.79	4.07	3.84	3.63	3.95	3.75	3.34	3.57	3.92	4.01	4.01	
1.95	1.93	1.93	1.93	1.91	1.90	1.88	1.86	1.83	1.81	1.78	1.75	1.72	1.69	1.66	1.63	1.60	1.56	1.53	1.49	1.45	1.41	1.37	1.33	1.29	1.25	1.22	1.18	1.14	1.10	1.06	1.03	1.00	0.97	0.94	0.92	0.90	0.89	0.89	0.89	0.91	0.93	0.96	0.99	1.04	1.09	1.14	1.20	1.26	1.32	1.39	1.46	1.53	1.60	1.67	1.74	1.81	1.88	1.95	2.03	2.11	2.22	2.32	2.37	2.41	2.45	2.58	2.73	2.64	2.33	2.19	2.37	2.59	2.87	3.10	3.30	3.35	3.18	3.17	3.23	3.26	3.29	3.33	3.32	3.36	3.38	3.33	3.34	3.34	3.31	3.28	3.32	3.43	3.46	3.41	3.41	3.40	3.36	3.42	3.54	3.76	4.06	3.90	3.63	3.64	3.65	4.01	4.10	3.49	3.33	3.63	3.60	3.34	3.37	3.58	3.76	3.71	3.71	4.22	4.10	3.61	3.89	3.71	3.18	3.39	3.80	3.95	3.95	
1.95	1.94	1.94	1.93	1.92	1.90	1.89	1.87	1.84	1.82	1.79	1.77	1.74	1.71	1.68	1.65	1.61	1.58	1.55	1.51	1.48	1.44	1.41	1.37	1.33	1.29	1.26	1.23	1.19	1.15	1.12	1.09	1.06	1.04	1.01	1.00	0.98	0.98	0.98	0.98	1.00	1.02	1.04	1.08	1.12	1.16	1.21	1.27	1.33	1.39	1.45	1.51	1.58	1.64	1.71	1.78	1.85	1.91	1.98	2.05	2.12	2.20	2.33	2.45	2.52	2.53	2.58	2.79	2.97	2.79	2.55	2.60	2.68	2.73	2.85	3.06	3.24	3.19	3.17	3.24	3.25	3.30	3.36	3.33	3.33	3.33	3.29	3.29	3.27	3.27	3.30	3.30	3.35	3.41	3.37	3.37	3.37	3.26	3.19	3.24	3.55	3.96	4.03	3.76	3.62	3.62	3.88	4.11	3.65	3.39	3.65	3.71	3.38	3.23	3.43	3.72	3.72	3.50	4.02	4.34	3.74	3.95	3.98	3.18	3.21	3.69	3.84	3.84	
1.96	1.95	1.94	1.94	1.93	1.91	1.89	1.87	1.85	1.83	1.81	1.78	1.75	1.72	1.69	1.66	1.63	1.60	1.57	1.54	1.51	1.47	1.44	1.40	1.37	1.33	1.30	1.27	1.24	1.21	1.18	1.15	1.12	1.10	1.09	1.07	1.06	1.06	1.06	1.07	1.08	1.10	1.13	1.16	1.19	1.24	1.28	1.33	1.39	1.45	1.50	1.56	1.62	1.68	1.74	1.81	1.88	1.94	2.01	2.04	2.09	2.17	2.26	2.42	2.63	2.70	2.69	2.84	3.08	3.18	3.00	2.80	2.78	2.83	2.84	2.89	3.02	3.11	3.21	3.26	3.28	3.36	3.42	3.39	3.38	3.34	3.30	3.36	3.30	3.21	3.28	3.37	3.37	3.35	3.32	3.35	3.44	3.33	3.16	3.07	3.23	3.55	3.86	3.93	3.63	3.61	3.93	4.07	3.70	3.54	3.79	3.85	3.60	3.28	3.30	3.61	3.70	3.41	3.67	4.25	3.87	3.88	4.32	3.61	3.17	3.60	3.83	3.83	
1.97	1.95	1.95	1.95	1.93	1.92	1.90	1.88	1.86	1.84	1.82	1.79	1.77	1.74	1.71	1.68	1.65	1.62	1.59	1.56	1.53	1.50	1.47	1.44	1.41	1.37	1.34	1.31	1.29	1.26	1.23	1.21	1.19	1.17	1.15	1.14	1.14	1.13	1.14	1.14	1.16	1.18	1.20	1.23	1.27	1.31	1.35	1.39	1.44	1.50	1.56	1.61	1.67	1.72	1.78	1.84	1.90	1.96	2.06	2.11	2.10	2.17	2.28	2.35	2.56	2.73	2.60	2.53	2.64	2.88	3.12	3.13	3.03	3.08	3.07	3.03	3.00	3.00	3.21	3.32	3.28	3.38	3.53	3.54	3.56	3.63	3.59	3.68	3.73	3.45	3.35	3.52	3.60	3.51	3.35	3.31	3.51	3.49	3.28	3.13	3.16	3.26	3.49	3.87	3.73	3.58	3.92	4.08	3.71	3.67	3.90	3.84	3.71	3.41	3.29	3.51	3.69	3.47	3.48	3.99	3.85	3.65	4.20	4.00	3.36	3.54	3.81	3.81	
1.97	1.96	1.96	1.96	1.94	1.93	1.91	1.90	1.88	1.85	1.83	1.81	1.78	1.76	1.73	1.70	1.68	1.65	1.62	1.59	1.56	1.53	1.50	1.47	1.44	1.41	1.38	1.36	1.33	1.31	1.29	1.26	1.25	1.24	1.22	1.21	1.21	1.21	1.21	1.22	1.23	1.25	1.27	1.30	1.33	1.37	1.41	1.45	1.50	1.55	1.60	1.66	1.71	1.76	1.82	1.88	1.93	1.97	2.06	2.19	2.19	2.16	2.22	2.23	2.30	2.47	2.45	2.38	2.40	2.45	2.69	3.02	3.07	3.11	3.21	3.22	3.17	3.02	3.07	3.22	3.20	3.20	3.36	3.45	3.48	3.64	3.68	3.74	3.93	3.87	3.59	3.53	3.68	3.81	3.67	3.42	3.49	3.59	3.49	3.32	3.26	3.26	3.30	3.61	3.72	3.61	3.81	3.98	3.62	3.61	3.94	3.90	3.71	3.46	3.37	3.52	3.73	3.59	3.43	3.76	3.85	3.67	3.91	3.86	3.43	3.54	3.78	3.78	
1.98	1.97	1.97	1.96	1.95	1.94	1.92	1.91	1.89	1.87	1.85	1.82	1.80	1.77	1.75	1.72	1.70	1.67	1.64	1.62	1.59	1.56	1.53	1.51	1.48	1.45	1.43	1.40	1.38	1.36	1.35	1.32	1.30	1.29	1.28	1.28	1.27	1.27	1.28	1.29	1.30	1.32	1.34	1.37	1.40	1.43	1.47	1.51	1.55	1.60	1.65	1.70	1.75	1.80	1.85	1.90	1.96	1.99	2.02	2.12	2.16	2.11	2.07	2.12	2.30	2.48	2.55	2.57	2.65	2.60	2.53	2.77	2.95	2.97	3.03	3.06	3.09	3.06	3.04	3.15	3.17	3.14	3.16	3.10	3.09	3.19	3.24	3.28	3.44	3.70	3.70	3.47	3.48	3.67	3.73	3.63	3.52	3.58	3.56	3.44	3.37	3.31	3.29	3.40	3.54	3.55	3.71	3.82	3.54	3.45	3.70	3.88	3.83	3.54	3.40	3.53	3.71	3.67	3.50	3.55	3.77	3.83	3.90	3.75	3.30	3.41	3.71	3.71	
1.99	1.98	1.98	1.97	1.96	1.95	1.94	1.92	1.90	1.88	1.86	1.84	1.81	1.79	1.77	1.74	1.72	1.69	1.67	1.64	1.62	1.59	1.57	1.54	1.52	1.49	1.47	1.45	1.42	1.40	1.39	1.38	1.36	1.35	1.34	1.34	1.33	1.34	1.34	1.35	1.36	1.38	1.40	1.43	1.46	1.49	1.53	1.57	1.61	1.65	1.69	1.74	1.79	1.84	1.89	1.94	1.98	2.02	2.05	2.12	2.20	2.20	2.12	2.12	2.29	2.46	2.54	2.57	2.72	2.80	2.69	2.74	2.95	3.09	3.14	3.13	3.08	3.08	3.14	3.19	3.12	3.17	3.24	3.05	2.95	3.00	3.03	3.08	3.13	3.32	3.60	3.48	3.45	3.52	3.48	3.56	3.50	3.56	3.51	3.40	3.41	3.35	3.34	3.37	3.44	3.47	3.59	3.67	3.55	3.49	3.52	3.61	3.70	3.56	3.40	3.48	3.63	3.66	3.61	3.51	3.62	3.84	3.97	4.00	3.53	3.33	3.51	3.51	
2.00	1.99	1.99	1.98	1.97	1.96	1.95	1.93	1.91	1.89	1.87	1.85	1.83	1.81	1.79	1.76	1.74	1.72	1.69	1.67	1.65	1.62	1.60	1.58	1.55	1.53	1.51	1.49	1.47	1.45	1.43	1.42	1.41	1.41	1.41	1.40	1.39	1.40	1.40	1.41	1.43	1.45	1.47	1.49	1.52	1.55	1.58	1.62	1.66	1.70	1.74	1.79	1.83	1.88	1.92	1.97	2.00	2.05	2.10	2.17	2.28	2.36	2.36	2.33	2.33	2.36	2.43	2.47	2.58	2.69	2.59	2.58	2.79	3.01	3.18	3.31	3.28	3.16	3.19	3.30	3.18	3.15	3.22	3.04	2.93	2.93	2.96	2.99	2.98	3.04	3.27	3.30	3.39	3.55	3.50	3.46	3.37	3.49	3.53	3.36	3.35	3.35	3.36	3.39	3.45	3.50	3.56	3.59	3.52	3.48	3.49	3.48	3.51	3.50	3.41	3.44	3.54	3.58	3.63	3.59	3.60	3.70	3.75	4.02	3.93	3.57	3.52	3.52	
2.01	2.00	2.00	1.99	1.98	1.97	1.96	1.94	1.93	1.91	1.89	1.87	1.85	1.83	1.81	1.78	1.76	1.74	1.72	1.70	1.67	1.65	1.63	1.61	1.59	1.57	1.55	1.53	1.51	1.50	1.48	1.47	1.46	1.45	1.46	1.46	1.45	1.45	1.46	1.47	1.48	1.50	1.52	1.54	1.57	1.60	1.63	1.66	1.70	1.74	1.78	1.82	1.87	1.91	1.96	2.00	2.04	2.07	2.11	2.14	2.18	2.24	2.26	2.33	2.41	2.35	2.35	2.44	2.62	2.72	2.61	2.49	2.64	2.78	2.83	3.04	3.18	3.15	3.02	3.09	3.15	3.14	3.15	2.92	2.79	2.78	2.75	2.81	2.88	2.87	2.98	3.08	3.20	3.39	3.53	3.55	3.34	3.28	3.40	3.33	3.25	3.29	3.33	3.37	3.44	3.51	3.56	3.55	3.50	3.46	3.40	3.34	3.29	3.30	3.40	3.44	3.43	3.41	3.48	3.56	3.58	3.61	3.50	3.66	3.85	3.78	3.78	3.78	
2.02	2.01	2.01	2.00	1.99	1.98	1.97	1.96	1.94	1.92	1.90	1.89	1.87	1.85	1.83	1.80	1.78	1.76	1.74	1.72	1.70	1.68	1.66	1.64	1.62	1.60	1.59	1.57	1.56	1.54	1.53	1.52	1.51	1.50	1.50	1.50	1.51	1.51	1.52	1.53	1.54	1.55	1.58	1.60	1.62	1.65	1.68	1.71	1.74	1.78	1.82	1.86	1.91	1.95	2.00	2.04	2.07	2.07	2.09	2.10	2.10	2.11	2.09	2.17	2.38	2.42	2.30	2.36	2.66	2.84	2.81	2.64	2.64	2.74	2.71	2.69	2.89	3.19	2.99	2.82	2.95	3.08	3.29	3.06	2.76	2.79	2.71	2.72	2.96	2.96	2.93	3.01	3.10	3.21	3.36	3.58	3.51	3.31	3.39	3.37	3.26	3.26	3.25	3.32	3.43	3.57	3.72	3.70	3.68	3.74	3.63	3.46	3.33	3.11	3.28	3.57	3.52	3.36	3.31	3.37	3.46	3.61	3.47	3.44	3.54	3.69	3.92	3.92	
2.03	2.02	2.02	2.01	2.00	1.99	1.98	1.97	1.95	1.94	1.92	1.90	1.88	1.86	1.84	1.83	1.81	1.79	1.77	1.75	1.73	1.71	1.69	1.67	1.66	1.64	1.62	1.61	1.60	1.58	1.57	1.56	1.56	1.55	1.55	1.54	1.55	1.56	1.57	1.58	1.59	1.60	1.63	1.65	1.67	1.70	1.73	1.76	1.79	1.82	1.86	1.90	1.95	1.99	2.04	2.12	2.14	2.08	2.09	2.11	2.14	2.23	2.20	2.16	2.32	2.53	2.47	2.33	2.46	2.61	2.71	2.73	2.73	2.84	2.97	2.85	3.04	3.62	3.41	3.09	2.99	3.02	3.51	3.59	3.19	3.18	3.16	2.95	3.02	3.08	3.05	3.09	3.16	3.19	3.27	3.57	3.65	3.44	3.45	3.43	3.35	3.32	3.19	3.21	3.30	3.40	3.59	3.83	3.91	4.01	4.08	3.96	3.82	3.35	3.19	3.63	3.87	3.76	3.51	3.26	3.25	3.52	3.53	3.42	3.42	3.62	3.91	3.91	
2.04	2.03	2.03	2.03	2.02	2.01	2.00	1.98	1.97	1.95	1.94	1.92	1.90	1.88	1.86	1.85	1.83	1.81	1.79	1.77	1.76	1.74	1.72	1.70	1.69	1.67	1.66	1.65	1.64	1.62	1.62	1.61	1.60	1.60	1.60	1.60	1.60	1.60	1.62	1.63	1.64	1.66	1.67	1.69	1.72	1.74	1.77	1.80	1.83	1.86	1.89	1.93	1.98	2.03	2.06	2.18	2.33	2.25	2.17	2.19	2.17	2.31	2.36	2.15	2.09	2.32	2.47	2.45	2.49	2.53	2.57	2.65	2.74	2.93	3.22	3.21	3.33	3.99	3.99	3.55	3.38	3.21	3.43	3.75	3.70	3.53	3.49	3.32	3.02	2.93	3.01	3.04	3.18	3.24	3.20	3.43	3.57	3.43	3.33	3.28	3.32	3.41	3.30	3.16	3.15	3.14	3.01	3.24	3.63	3.77	3.92	3.99	4.01	3.73	3.26	3.33	3.74	3.98	3.90	3.51	3.28	3.45	3.51	3.42	3.41	3.65	3.92	3.92	
2.05	2.04	2.04	2.04	2.03	2.02	2.01	2.00	1.98	1.97	1.95	1.93	1.92	1.90	1.88	1.87	1.85	1.83	1.81	1.80	1.78	1.77	1.75	1.73	1.72	1.71	1.69	1.68	1.67	1.66	1.66	1.65	1.65	1.64	1.64	1.64	1.65	1.65	1.66	1.67	1.69	1.71	1.72	1.74	1.76	1.78	1.81	1.83	1.87	1.90	1.93	1.97	2.02	2.06	2.08	2.14	2.40	2.50	2.35	2.28	2.14	2.21	2.43	2.29	2.12	2.18	2.40	2.56	2.64	2.67	2.66	2.58	2.39	2.40	2.67	2.74	2.78	3.54	4.05	3.72	3.54	3.43	3.23	3.16	3.47	3.62	3.56	3.71	3.42	3.01	3.10	3.08	3.08	3.21	3.18	3.27	3.44	3.59	3.41	3.15	3.15	3.25	3.34	3.33	3.31	3.42	3.19	2.87	3.13	3.45	3.61	3.73	3.78	3.68	3.37	3.18	3.43	3.79	3.89	3.59	3.37	3.49	3.45	3.34	3.35	3.59	3.87	3.87	
2.06	2.05	2.05	2.05	2.04	2.03	2.02	2.01	2.00	1.98	1.97	1.95	1.93	1.92	1.90	1.89	1.87	1.85	1.84	1.82	1.81	1.79	1.78	1.76	1.75	1.74	1.73	1.72	1.71	1.70	1.69	1.69	1.69	1.68	1.68	1.69	1.69	1.69	1.70	1.71	1.72	1.75	1.76	1.78	1.80	1.83	1.85	1.87	1.89	1.93	1.96	2.00	2.05	2.09	2.12	2.13	2.28	2.51	2.54	2.52	2.41	2.42	2.60	2.58	2.38	2.21	2.31	2.53	2.58	2.65	2.76	2.79	2.52	2.23	2.22	2.37	2.43	2.85	3.57	3.56	3.47	3.68	3.73	3.14	2.90	3.27	3.35	3.58	3.73	3.33	3.18	3.22	3.08	3.23	3.39	3.32	3.27	3.59	3.64	3.25	3.13	3.16	3.24	3.33	3.33	3.43	3.43	3.04	2.90	3.13	3.39	3.65	3.67	3.56	3.44	3.33	3.47	3.72	3.87	3.61	3.23	3.43	3.50	3.36	3.39	3.54	3.71	3.71	
2.07	2.06	2.06	2.06	2.05	2.04	2.03	2.02	2.01	2.00	1.98	1.97	1.95	1.94	1.92	1.91	1.89	1.88	1.86	1.85	1.83	1.82	1.81	1.79	1.78	1.77	1.76	1.75	1.74	1.74	1.73	1.73	1.72	1.72	1.72	1.73	1.73	1.74	1.74	1.75	1.76	1.78	1.80	1.82	1.84	1.86	1.89	1.91	1.93	1.96	1.99	2.02	2.06	2.10	2.15	2.24	2.34	2.44	2.56	2.68	2.75	2.71	2.76	2.79	2.61	2.27	2.19	2.44	2.58	2.65	2.79	2.97	3.07	2.86	2.44	2.37	2.48	2.87	3.35	3.43	3.35	3.52	4.04	3.91	3.26	3.00	2.91	2.99	3.29	3.18	2.98	3.04	2.90	3.02	3.47	3.58	3.39	3.54	3.62	3.31	3.12	3.11	3.13	3.14	3.20	3.20	3.28	3.21	2.98	2.95	3.10	3.49	3.69	3.49	3.23	3.31	3.59	3.66	3.88	3.88	3.28	3.20	3.46	3.44	3.52	3.66	3.73	3.73	
2.08	2.07	2.07	2.07	2.06	2.06	2.05	2.03	2.02	2.01	2.00	1.98	1.97	1.95	1.94	1.92	1.91	1.90	1.88	1.87	1.86	1.84	1.83	1.82	1.81	1.80	1.79	1.78	1.78	1.77	1.77	1.76	1.76	1.76	1.76	1.76	1.77	1.78	1.78	1.79	1.81	1.82	1.84	1.86	1.88	1.90	1.92	1.94	1.96	1.99	2.01	2.04	2.07	2.10	2.12	2.26	2.48	2.52	2.43	2.44	2.58	2.61	2.62	2.78	2.82	2.56	2.43	2.47	2.57	2.62	2.70	2.87	3.09	3.32	3.15	2.85	2.80	2.97	3.25	3.37	3.16	3.02	3.56	3.96	3.83	3.55	3.19	3.15	3.29	3.28	3.19	3.06	2.80	2.66	3.05	3.48	3.58	3.82	3.79	3.34	2.98	2.86	2.93	3.21	3.43	3.25	3.24	3.33	3.26	3.12	2.88	3.00	3.48	3.56	3.08	3.15	3.58	3.53	3.75	4.05	3.53	3.14	3.31	3.43	3.50	3.64	3.77	3.77	
2.10	2.09	2.09	2.08	2.08	2.07	2.06	2.05	2.04	2.02	2.01	2.00	1.98	1.97	1.96	1.94	1.93	1.92	1.90	1.89	1.88	1.87	1.86	1.85	1.84	1.83	1.82	1.81	1.81	1.80	1.80	1.80	1.80	1.80	1.80	1.80	1.81	1.81	1.82	1.83	1.84	1.86	1.87	1.89	1.91	1.93	1.95	1.97	1.99	2.01	2.03	2.06	2.07	2.08	2.09	2.18	2.44	2.63	2.44	2.28	2.39	2.53	2.49	2.58	2.71	2.57	2.58	2.61	2.62	2.60	2.52	2.55	2.59	2.85	3.14	3.17	3.13	2.95	2.90	3.11	3.13	2.89	3.15	3.68	3.81	3.88	3.89	3.95	3.97	4.07	4.06	3.59	3.15	2.84	2.83	3.15	3.51	3.97	4.24	3.96	3.48	3.09	2.83	3.12	3.62	3.38	3.14	3.15	3.33	3.50	3.11	2.69	2.92	3.37	3.05	3.01	3.44	3.31	3.57	4.08	3.81	3.33	3.26	3.42	3.49	3.57	3.70	3.70	
2.11	2.10	2.10	2.10	2.09	2.08	2.07	2.06	2.05	2.04	2.02	2.01	2.00	1.98	1.97	1.96	1.95	1.93	1.92	1.91	1.90	1.89	1.88	1.87	1.86	1.85	1.85	1.84	1.83	1.83	1.83	1.83	1.83	1.83	1.83	1.83	1.84	1.85	1.86	1.87	1.88	1.89	1.91	1.92	1.94	1.96	1.98	2.01	2.02	2.04	2.06	2.07	2.08	2.05	2.03	2.08	2.28	2.66	2.72	2.40	2.36	2.56	2.64	2.62	2.55	2.30	2.31	2.61	2.76	2.70	2.55	2.42	2.34	2.19	2.10	2.36	2.88	2.97	2.77	2.89	3.09	2.88	2.77	3.34	3.75	3.72	3.72	3.95	3.94	4.00	4.48	4.42	3.86	3.49	3.22	3.10	3.33	3.80	4.20	4.30	4.16	3.71	3.15	3.13	3.62	3.57	3.10	2.91	3.08	3.57	3.61	3.07	2.73	2.97	2.86	2.86	3.30	3.07	3.13	3.74	3.82	3.47	3.27	3.38	3.46	3.54	3.62	3.62	
2.12	2.11	2.11	2.11	2.10	2.09	2.08	2.07	2.06	2.05	2.03	2.02	2.01	2.00	1.99	1.97	1.96	1.95	1.94	1.93	1.92	1.91	1.90	1.89	1.88	1.88	1.87	1.86	1.86	1.86	1.86	1.86	1.86	1.86	1.86	1.87	1.87	1.88	1.89	1.90	1.91	1.92	1.94	1.96	1.97	1.99	2.01	2.03	2.05	2.07	2.08	2.09	2.09	2.05	1.93	1.85	1.93	2.34	2.85	2.72	2.39	2.47	2.78	3.06	2.94	2.41	2.07	2.31	2.63	2.67	2.61	2.43	2.32	2.18	1.95	1.96	2.46	2.86	2.63	2.78	3.03	2.77	2.30	2.42	3.17	3.14	2.94	3.26	3.26	3.07	3.66	4.31	4.15	3.85	3.61	3.14	2.94	3.49	3.92	3.99	4.16	3.97	3.53	3.50	3.79	3.90	3.41	3.08	3.06	3.28	3.59	3.48	3.13	2.98	2.82	2.71	3.14	3.15	2.94	3.24	3.40	3.25	3.24	3.39	3.42	3.49	3.56	3.56	
2.14	2.13	2.12	2.12	2.11	2.10	2.09	2.08	2.07	2.06	2.04	2.03	2.02	2.01	2.00	1.99	1.97	1.96	1.95	1.94	1.93	1.93	1.92	1.91	1.90	1.90	1.89	1.89	1.88	1.88	1.88	1.88	1.88	1.88	1.89	1.89	1.90	1.91	1.92	1.93	1.94	1.95	1.97	1.99	2.00	2.02	2.04	2.06	2.08	2.10	2.11	2.12	2.11	2.08	1.99	1.87	1.77	1.91	2.55	2.94	2.73	2.45	2.51	3.05	3.37	2.91	2.37	2.32	2.62	2.72	2.65	2.60	2.53	2.60	2.51	2.30	2.46	2.73	2.51	2.75	3.19	3.01	2.38	2.09	2.76	2.78	2.62	2.94	3.05	2.83	2.95	3.52	3.63	3.55	3.59	3.25	2.79	3.07	3.63	3.74	3.89	3.92	3.65	3.57	3.84	4.03	3.77	3.48	3.40	3.37	3.46	3.52	3.37	3.18	2.93	2.66	2.87	3.14	3.06	3.20	3.23	2.94	3.06	3.37	3.50	3.60	3.67	3.67	
2.15	2.14	2.14	2.13	2.12	2.11	2.10	2.09	2.07	2.06	2.05	2.04	2.03	2.02	2.01	2.00	1.99	1.97	1.97	1.96	1.95	1.94	1.93	1.93	1.92	1.91	1.91	1.91	1.90	1.90	1.90	1.90	1.90	1.91	1.91	1.92	1.92	1.93	1.94	1.95	1.97	1.98	2.00	2.01	2.03	2.05	2.07	2.09	2.11	2.12	2.14	2.15	2.14	2.14	2.11	2.06	1.91	1.79	2.04	2.51	2.71	2.53	2.20	2.42	3.16	3.11	2.62	2.48	2.78	3.00	2.91	2.87	2.79	2.91	3.01	2.94	2.87	2.70	2.53	2.73	3.22	3.31	2.61	2.19	2.69	2.84	2.72	2.84	3.00	2.91	2.94	3.31	3.26	3.21	3.43	3.33	2.93	2.93	3.31	3.44	3.52	3.72	3.72	3.60	3.85	4.02	3.97	3.98	3.93	3.78	3.66	3.64	3.52	3.38	3.22	2.99	2.93	2.99	2.99	3.37	3.46	2.94	2.93	3.23	3.40	3.62	3.77	3.77	
2.17	2.16	2.15	2.14	2.13	2.11	2.10	2.09	2.08	2.07	2.06	2.05	2.04	2.02	2.01	2.00	1.99	1.98	1.98	1.97	1.96	1.95	1.94	1.94	1.93	1.93	1.93	1.92	1.92	1.92	1.92	1.92	1.92	1.93	1.93	1.94	1.95	1.96	1.97	1.98	1.99	2.01	2.02	2.04	2.06	2.08	2.09	2.11	2.13	2.15	2.16	2.18	2.18	2.19	2.17	2.14	2.07	1.92	1.90	2.05	2.23	2.37	2.18	2.11	2.75	3.06	2.69	2.47	2.70	2.97	3.00	2.97	2.73	2.71	2.93	3.14	3.21	2.71	2.52	2.82	3.22	3.40	2.80	2.44	2.72	2.82	2.71	2.73	2.83	2.80	2.96	3.37	3.26	3.02	3.19	3.30	3.13	3.08	3.34	3.28	2.97	3.14	3.47	3.58	3.74	3.92	3.93	4.04	4.26	4.21	4.06	4.14	4.11	3.86	3.69	3.58	3.53	3.24	2.83	3.20	3.53	3.02	2.89	3.15	3.28	3.53	3.73	3.73	
2.19	2.18	2.17	2.15	2.13	2.12	2.11	2.09	2.08	2.07	2.06	2.05	2.04	2.03	2.02	2.01	2.00	1.99	1.98	1.97	1.97	1.96	1.95	1.95	1.94	1.94	1.94	1.93	1.93	1.93	1.93	1.94	1.94	1.94	1.95	1.96	1.97	1.98	1.99	2.00	2.01	2.03	2.04	2.06	2.08	2.10	2.12	2.14	2.16	2.18	2.20	2.21	2.23	2.23	2.23	2.22	2.19	2.14	2.11	2.13	2.17	2.23	2.22	2.07	2.33	2.75	2.63	2.33	2.40	2.57	2.60	2.79	2.62	2.42	2.51	2.82	3.17	2.88	2.48	2.64	3.12	3.39	3.17	2.87	2.97	3.00	2.82	2.87	2.87	2.77	2.85	3.23	3.33	3.13	3.10	3.20	3.21	3.16	3.43	3.52	3.11	2.93	3.11	3.29	3.31	3.37	3.38	3.39	3.70	3.96	3.91	4.03	4.24	4.24	4.14	4.07	4.19	4.06	3.57	3.55	3.84	3.61	3.27	3.28	3.32	3.45	3.61	3.61	
2.21	2.19	2.17	2.16	2.14	2.13	2.11	2.10	2.09	2.08	2.07	2.06	2.05	2.04	2.03	2.02	2.01	2.00	1.99	1.99	1.98	1.97	1.97	1.96	1.96	1.96	1.95	1.95	1.95	1.95	1.95	1.96	1.96	1.96	1.97	1.98	1.99	2.00	2.01	2.02	2.04	2.05	2.07	2.08	2.10	2.12	2.14	2.16	2.18	2.20	2.22	2.24	2.25	2.26	2.26	2.26	2.26	2.25	2.24	2.29	2.31	2.27	2.23	2.08	2.13	2.45	2.49	2.19	2.22	2.38	2.33	2.59	2.57	2.31	2.31	2.60	3.03	2.98	2.47	2.39	2.90	3.33	3.35	3.00	3.07	3.23	3.07	3.06	3.02	2.85	2.79	3.07	3.34	3.34	3.22	3.14	3.15	3.12	3.40	3.76	3.65	3.25	3.03	3.10	3.07	3.03	3.08	3.06	3.19	3.47	3.49	3.55	3.87	4.21	4.33	4.28	4.46	4.65	4.46	4.25	4.35	4.23	3.71	3.43	3.36	3.41	3.51	3.51	
