ncols	128
nrows	92
xllcorner	280654.681342
yllcorner	3772085.885776
cellsize	500.000000
NODATA_value	-32768.000000
2.76	2.60	2.73	2.99	2.91	2.74	2.50	2.65	3.10	3.19	3.13	3.16	3.02	2.97	2.76	2.54	2.56	2.46	2.74	3.18	3.34	3.32	3.29	3.36	3.31	3.20	3.33	3.40	3.22	3.14	3.22	3.24	3.25	3.31	3.38	3.46	3.61	3.79	4.10	4.12	4.19	4.28	3.98	3.92	4.19	4.36	4.28	4.00	3.63	4.17	4.59	4.66	4.66	4.78	4.68	4.38	4.16	3.86	3.85	3.95	4.12	4.84	5.25	5.29	5.49	5.41	5.23	4.85	4.16	3.77	3.76	4.03	4.12	3.95	3.67	3.67	3.67	3.47	3.55	3.66	3.71	3.42	4.50	5.72	5.35	4.72	4.85	5.07	5.09	4.72	4.81	5.00	4.84	5.01	4.94	4.49	4.37	4.04	3.57	3.37	3.62	3.71	4.10	4.96	4.59	3.67	3.53	3.35	3.42	3.44	3.52	3.55	3.43	3.75	3.90	3.82	3.85	4.01	4.23	4.28	4.30	4.37	4.38	4.26	4.11	4.07	4.05	4.05	
2.76	2.60	2.73	2.99	2.91	2.74	2.50	2.65	3.10	3.19	3.13	3.16	3.02	2.97	2.76	2.54	2.56	2.46	2.74	3.18	3.34	3.32	3.29	3.36	3.31	3.20	3.33	3.40	3.22	3.14	3.22	3.24	3.25	3.31	3.38	3.46	3.61	3.79	4.10	4.12	4.19	4.28	3.98	3.92	4.19	4.36	4.28	4.00	3.63	4.17	4.59	4.66	4.66	4.78	4.68	4.38	4.16	3.86	3.85	3.95	4.12	4.84	5.25	5.29	5.49	5.41	5.23	4.85	4.16	3.77	3.76	4.03	4.12	3.95	3.67	3.67	3.67	3.47	3.55	3.66	3.71	3.42	4.50	5.72	5.35	4.72	4.85	5.07	5.09	4.72	4.81	5.00	4.84	5.01	4.94	4.49	4.37	4.04	3.57	3.37	3.62	3.71	4.10	4.96	4.59	3.67	3.53	3.35	3.42	3.44	3.52	3.55	3.43	3.75	3.90	3.82	3.85	4.01	4.23	4.28	4.30	4.37	4.38	4.26	4.11	4.07	4.05	4.05	
2.79	2.37	2.26	2.66	2.84	2.75	2.31	2.21	2.70	2.86	2.83	3.01	2.92	2.92	2.89	2.73	2.70	2.50	2.46	2.75	2.97	2.99	2.96	3.08	3.12	2.89	2.94	3.18	3.11	3.01	3.01	3.06	3.04	3.04	3.10	3.09	2.96	2.96	3.50	3.58	3.66	3.95	3.72	3.26	3.49	3.93	3.86	3.84	3.45	3.65	3.90	3.68	3.80	4.29	4.35	4.42	4.49	3.98	3.82	3.84	3.61	4.09	4.65	4.59	4.78	4.97	5.07	5.00	4.55	4.16	3.96	4.15	4.32	4.22	3.95	3.88	3.79	3.58	3.68	3.82	3.89	3.53	3.88	5.17	5.32	4.67	4.72	5.01	5.29	5.14	4.98	4.89	4.28	4.34	4.93	4.85	4.76	4.46	3.94	3.51	3.57	3.56	3.58	4.67	5.00	4.31	4.08	3.71	3.51	3.39	3.38	3.44	3.33	3.54	3.74	3.72	3.75	3.85	4.03	4.01	3.91	3.96	4.04	4.03	3.97	4.03	4.08	4.08	
3.14	2.57	2.08	2.26	2.70	2.89	2.45	2.13	2.48	2.61	2.59	2.88	2.94	2.89	2.95	2.94	2.84	2.53	2.36	2.56	2.74	2.71	2.65	2.77	2.96	2.81	2.71	2.92	3.00	3.00	2.91	2.96	2.99	2.92	2.89	2.76	2.61	2.68	3.01	2.95	2.97	3.48	3.49	2.94	3.25	3.89	3.49	3.43	3.18	3.06	3.34	3.16	3.53	3.98	3.58	4.02	4.92	4.37	3.67	3.79	3.39	3.34	3.96	3.93	3.99	4.51	4.99	5.11	4.89	4.65	4.35	4.31	4.53	4.58	4.38	4.23	4.03	3.82	4.00	4.21	3.94	3.17	3.11	4.66	5.32	4.78	4.58	4.61	4.98	5.30	5.34	5.30	4.31	3.81	4.56	4.95	5.25	4.94	4.50	4.07	3.61	3.23	3.09	4.25	5.09	5.19	5.19	4.83	4.12	3.49	3.36	3.37	3.31	3.44	3.51	3.50	3.60	3.68	3.86	3.92	3.78	3.80	3.91	3.86	3.81	3.94	4.03	4.03	
3.19	3.08	2.65	2.27	2.44	2.75	2.59	2.37	2.50	2.58	2.61	2.71	2.82	2.81	2.75	2.82	2.80	2.54	2.46	2.61	2.74	2.68	2.63	2.73	2.86	2.83	2.72	2.75	2.83	2.93	2.89	2.89	2.96	2.93	2.88	2.77	2.71	2.76	2.85	2.83	2.87	3.26	3.32	2.84	3.12	4.06	3.73	3.35	3.24	3.05	3.21	3.20	3.91	4.08	3.01	3.00	4.67	4.91	3.67	3.64	3.57	3.48	3.95	4.15	4.24	4.47	4.94	5.25	5.12	5.05	4.86	4.49	4.57	4.65	4.43	4.27	4.00	3.68	3.75	4.04	3.52	2.79	2.83	3.97	4.90	4.79	4.68	4.30	4.36	5.00	5.57	5.67	5.01	4.64	4.63	4.73	5.30	5.09	4.66	4.46	3.97	3.12	2.89	3.94	4.46	4.86	5.30	5.64	5.12	3.82	3.68	3.63	3.54	3.77	3.57	3.26	3.48	3.79	3.94	3.87	3.71	3.85	4.10	4.00	3.82	3.87	3.90	3.90	
2.71	3.00	3.02	2.48	2.31	2.46	2.31	2.27	2.41	2.51	2.71	2.67	2.62	2.70	2.67	2.70	2.74	2.57	2.49	2.60	2.72	2.70	2.68	2.77	2.85	2.80	2.73	2.73	2.77	2.83	2.84	2.82	2.85	2.84	2.83	2.78	2.72	2.65	2.68	2.84	2.89	3.20	3.28	2.74	2.88	3.67	3.71	3.53	3.56	3.46	3.16	3.29	4.09	4.22	3.49	2.55	3.38	5.01	4.32	3.41	3.33	3.69	3.98	4.19	4.67	4.58	4.68	5.20	5.31	5.51	5.39	4.87	4.91	4.99	4.69	4.26	3.55	3.34	3.51	3.74	3.60	3.00	2.64	3.04	3.74	4.21	4.69	4.19	3.80	4.18	5.01	5.13	4.51	4.73	4.87	4.97	5.21	5.03	4.89	4.93	4.74	3.76	2.89	3.57	4.19	4.24	4.58	5.59	5.74	4.21	3.66	3.59	3.49	4.04	4.13	3.43	3.48	4.03	4.39	4.12	3.43	3.51	3.94	4.02	3.99	3.96	3.90	3.90	
2.52	2.79	3.04	2.81	2.58	2.46	2.21	2.18	2.31	2.46	2.71	2.81	2.74	2.66	2.67	2.67	2.64	2.58	2.57	2.64	2.71	2.72	2.73	2.80	2.87	2.84	2.78	2.79	2.83	2.86	2.84	2.85	2.86	2.83	2.81	2.78	2.78	2.69	2.59	2.71	2.71	2.97	3.25	3.02	3.15	3.30	3.21	3.25	3.45	3.59	3.25	3.54	3.94	3.99	4.17	3.22	2.69	4.22	4.93	3.74	3.03	3.50	3.54	3.50	4.48	4.46	4.45	4.79	4.93	5.59	5.63	5.03	5.12	5.42	5.61	5.21	3.94	3.67	3.98	4.11	3.91	3.36	2.88	2.57	2.73	3.65	4.55	4.12	3.38	3.42	4.69	4.88	3.95	4.08	4.53	5.09	5.28	4.72	4.36	4.61	4.85	4.56	3.60	3.48	4.40	4.52	4.36	5.32	6.02	5.30	4.23	3.60	3.14	3.45	4.15	3.97	3.74	4.09	4.74	4.96	3.96	3.47	3.80	3.84	3.88	3.90	3.84	3.84	
2.54	2.75	2.95	2.98	3.05	2.86	2.46	2.31	2.33	2.44	2.57	2.75	2.87	2.76	2.75	2.74	2.63	2.60	2.61	2.64	2.63	2.67	2.75	2.81	2.83	2.80	2.77	2.79	2.82	2.83	2.81	2.81	2.82	2.78	2.77	2.75	2.73	2.71	2.70	2.64	2.58	2.68	2.92	3.08	3.25	3.24	3.02	3.06	3.21	3.22	3.25	3.65	3.67	3.64	4.07	3.83	3.20	3.52	4.70	4.34	3.07	3.05	3.17	3.44	4.25	3.99	4.06	4.27	4.37	5.39	5.66	4.90	4.70	4.86	5.20	5.67	5.08	4.41	4.00	3.98	4.10	4.15	3.86	2.92	2.71	3.55	4.63	4.71	3.94	3.52	4.76	4.88	4.15	4.08	4.36	4.80	5.24	5.06	4.23	3.96	4.14	4.46	3.92	3.42	4.22	4.75	4.49	4.89	5.51	5.66	5.51	4.77	3.85	3.31	3.43	3.62	3.60	3.75	4.23	5.03	4.81	4.02	4.15	4.22	4.11	4.01	3.88	3.88	
2.42	2.68	2.88	2.78	2.98	3.06	2.79	2.58	2.50	2.50	2.54	2.62	2.73	2.75	2.78	2.76	2.65	2.61	2.66	2.72	2.65	2.61	2.69	2.79	2.82	2.78	2.78	2.82	2.87	2.86	2.81	2.82	2.83	2.73	2.73	2.81	2.74	2.75	2.91	2.84	2.72	2.67	2.75	2.97	3.10	3.18	3.06	3.05	3.19	3.15	3.22	3.50	3.49	3.62	3.77	3.59	3.53	3.54	4.18	4.44	3.73	3.20	2.90	3.35	4.09	3.90	3.69	3.69	3.85	5.00	5.42	4.99	4.86	4.49	4.38	4.70	4.45	4.25	3.94	3.86	4.12	4.59	4.87	4.14	3.34	3.58	4.50	5.22	5.08	4.38	4.82	4.75	4.45	4.62	4.64	4.57	4.77	5.38	5.13	4.29	3.90	4.19	3.92	3.25	3.60	4.32	4.59	4.94	4.94	4.83	5.44	5.42	4.75	4.26	3.69	3.32	3.43	3.63	3.74	4.38	4.77	4.39	4.30	4.48	4.51	4.54	4.52	4.52	
2.27	2.49	2.85	2.78	2.71	2.80	2.75	2.70	2.64	2.57	2.55	2.59	2.56	2.60	2.69	2.69	2.64	2.61	2.64	2.76	2.75	2.65	2.64	2.74	2.80	2.76	2.76	2.83	2.90	2.88	2.75	2.76	2.85	2.72	2.72	2.88	2.84	2.75	2.87	2.97	2.90	2.85	2.85	2.89	2.97	3.09	3.02	2.90	3.05	3.32	3.31	3.21	3.29	3.56	3.60	3.38	3.42	3.62	4.10	4.32	4.50	4.33	3.22	3.03	3.63	3.99	3.69	3.50	3.77	4.94	5.00	4.84	5.55	5.65	5.40	4.66	4.17	4.25	4.51	4.55	4.11	4.06	4.47	4.24	3.60	3.45	3.86	4.55	5.38	5.27	4.78	4.41	4.16	4.77	5.03	4.45	4.16	4.70	5.50	4.98	4.25	4.27	4.08	3.47	3.49	3.81	4.11	4.72	4.58	3.98	4.63	5.10	4.44	4.19	4.04	3.51	3.56	3.94	3.88	4.10	4.27	4.12	4.03	3.94	3.88	4.36	4.85	4.85	
2.20	2.31	2.77	2.91	2.74	2.66	2.59	2.62	2.64	2.62	2.59	2.60	2.56	2.56	2.60	2.62	2.61	2.61	2.60	2.67	2.77	2.70	2.62	2.69	2.76	2.72	2.71	2.84	3.06	3.10	2.89	2.82	2.89	2.79	2.79	2.89	2.87	2.79	2.78	2.85	2.85	2.89	2.95	2.94	2.98	3.11	3.07	2.85	2.87	3.25	3.44	3.30	3.24	3.41	3.31	3.33	3.64	3.90	4.43	4.62	4.99	5.65	5.13	3.99	3.84	4.32	4.30	4.17	4.16	5.36	5.43	4.23	4.93	6.07	6.85	6.17	5.00	4.60	4.45	4.56	4.35	4.22	4.17	3.92	3.69	3.50	3.58	3.81	4.84	5.49	4.37	4.20	4.22	4.51	5.17	4.77	3.85	3.79	5.03	5.18	4.33	3.94	4.03	3.97	3.85	3.73	3.76	4.47	4.57	3.68	4.01	5.16	4.74	3.89	3.75	3.48	3.47	3.85	3.82	3.99	4.04	3.82	3.94	3.92	3.64	3.93	4.39	4.39	
2.19	2.21	2.60	2.81	2.69	2.62	2.55	2.56	2.58	2.62	2.62	2.63	2.55	2.52	2.54	2.54	2.56	2.63	2.63	2.63	2.71	2.67	2.56	2.62	2.73	2.66	2.56	2.65	2.96	3.23	3.17	3.05	2.98	2.86	2.82	2.85	2.85	2.80	2.84	2.83	2.72	2.82	3.00	2.99	2.99	3.16	3.20	2.99	2.87	2.91	3.13	3.41	3.38	3.37	3.05	3.00	3.45	3.79	4.08	4.36	4.54	5.21	6.12	5.83	5.18	5.06	5.24	5.27	4.58	4.96	6.08	4.67	3.75	4.55	6.59	7.01	5.30	4.35	4.46	4.55	4.46	4.69	4.49	3.93	3.75	3.66	3.71	3.77	4.72	5.63	4.19	3.89	4.53	4.65	4.99	5.09	4.10	3.47	4.48	4.93	4.22	3.69	3.85	4.44	4.62	4.27	3.96	4.35	4.94	4.29	3.50	4.60	5.34	4.66	4.02	3.54	3.52	3.83	3.72	3.81	3.87	3.74	3.91	3.96	3.93	3.98	3.99	3.99	
2.30	2.26	2.50	2.67	2.59	2.57	2.55	2.54	2.55	2.60	2.61	2.69	2.61	2.46	2.49	2.52	2.54	2.62	2.68	2.66	2.71	2.70	2.54	2.60	2.75	2.65	2.54	2.41	2.50	2.89	3.04	3.00	2.97	3.00	2.90	2.82	2.89	2.83	2.94	2.97	2.71	2.79	3.10	3.06	3.00	3.19	3.31	3.25	3.13	2.85	2.78	3.05	3.22	3.30	2.91	2.74	2.96	3.19	3.37	3.58	3.63	3.71	4.71	5.66	5.33	4.68	4.86	5.50	4.88	4.59	6.02	5.66	4.04	3.79	5.68	7.20	6.12	4.51	4.63	4.91	4.45	4.66	4.69	4.12	3.88	3.91	3.95	3.84	4.77	5.78	4.49	3.60	4.28	4.92	4.94	5.10	4.36	3.51	4.46	5.07	4.52	3.99	3.70	4.24	4.90	4.71	4.16	3.97	4.71	4.95	3.82	3.71	4.72	4.82	4.40	3.86	3.83	4.19	3.98	4.03	3.91	3.78	4.12	3.93	3.95	4.09	3.98	3.98	
2.53	2.37	2.38	2.53	2.53	2.53	2.56	2.50	2.46	2.56	2.59	2.70	2.75	2.52	2.42	2.49	2.55	2.60	2.70	2.69	2.69	2.75	2.56	2.55	2.70	2.57	2.56	2.48	2.35	2.58	2.77	2.78	2.86	3.12	3.01	2.80	2.84	2.72	2.87	2.98	2.72	2.82	3.12	3.10	3.03	3.22	3.38	3.48	3.56	3.33	3.04	2.97	3.13	3.27	2.92	2.72	3.04	3.29	3.39	3.45	3.40	3.50	4.02	4.92	5.21	4.44	4.23	4.93	4.93	5.01	5.99	6.01	4.71	3.72	4.90	6.78	6.78	5.34	4.78	5.11	4.87	4.69	4.68	4.31	4.06	4.19	4.28	3.98	4.64	5.75	5.13	3.74	3.84	4.90	5.11	5.53	4.72	3.37	4.02	4.76	4.38	3.80	3.60	4.03	4.58	4.75	4.44	4.08	4.40	4.96	4.74	4.24	4.30	4.44	4.39	3.94	3.79	4.16	4.05	4.28	4.30	4.02	4.53	4.50	3.98	3.89	3.90	3.90	
2.81	2.55	2.30	2.37	2.45	2.49	2.59	2.57	2.42	2.48	2.54	2.62	2.76	2.64	2.44	2.45	2.57	2.59	2.63	2.67	2.67	2.77	2.67	2.57	2.64	2.50	2.46	2.48	2.44	2.54	2.61	2.54	2.72	3.17	3.10	2.94	3.00	2.78	2.84	2.91	2.72	2.94	3.18	3.14	3.16	3.31	3.43	3.56	3.78	3.88	3.71	3.57	3.62	3.64	3.21	2.74	3.01	3.49	3.65	3.50	3.21	3.46	3.88	4.63	5.34	4.80	4.25	4.22	4.25	4.75	5.48	6.11	5.51	3.95	4.22	5.86	6.42	5.91	5.26	5.11	5.16	4.97	4.72	4.40	4.12	4.34	4.77	4.55	4.57	5.52	5.66	4.32	3.91	4.67	4.86	5.74	5.51	3.87	3.69	4.08	3.84	3.31	3.48	4.13	4.27	4.40	4.34	4.02	4.05	4.30	4.59	4.67	4.39	4.22	4.33	4.12	3.90	4.12	4.06	4.18	4.35	4.06	4.41	5.01	4.52	4.00	4.02	4.02	
2.98	2.67	2.31	2.26	2.32	2.37	2.50	2.57	2.43	2.42	2.47	2.51	2.61	2.55	2.41	2.42	2.56	2.61	2.58	2.55	2.61	2.78	2.81	2.78	2.85	2.75	2.61	2.42	2.40	2.54	2.55	2.32	2.53	3.11	3.12	3.19	3.35	3.21	3.18	3.19	3.01	3.21	3.39	3.27	3.35	3.39	3.37	3.45	3.51	3.73	3.65	3.49	3.62	3.73	3.33	2.77	2.84	3.41	3.87	3.64	3.00	3.19	3.64	4.26	5.02	4.96	4.76	4.19	4.00	4.42	4.48	5.36	5.99	4.85	4.20	4.97	5.57	5.54	5.33	5.02	5.07	5.10	4.83	4.49	4.08	4.10	4.77	5.01	4.63	5.12	5.76	5.02	4.33	4.44	4.41	5.20	5.83	5.14	4.65	4.54	3.88	3.09	3.36	4.23	4.19	4.05	4.21	4.04	3.97	3.97	4.09	4.41	4.36	4.11	4.19	4.34	4.24	4.15	4.03	4.09	4.09	3.69	3.85	4.70	4.92	4.54	4.34	4.34	
3.13	2.68	2.24	2.19	2.18	2.21	2.34	2.46	2.40	2.39	2.43	2.48	2.50	2.42	2.35	2.39	2.53	2.62	2.59	2.48	2.52	2.74	2.79	2.78	2.93	3.06	3.07	2.71	2.50	2.64	2.65	2.44	2.57	2.99	2.94	3.07	3.30	3.15	3.25	3.27	3.10	3.30	3.39	3.15	3.30	3.34	3.18	3.28	3.20	3.44	3.50	3.33	3.58	3.75	3.34	2.82	2.73	3.26	3.97	3.78	3.34	3.54	3.88	4.25	4.55	4.80	5.33	4.85	4.40	4.52	4.34	4.96	5.72	5.69	5.00	4.71	5.10	5.26	5.28	5.07	5.01	5.06	4.88	4.62	4.19	3.86	4.21	4.86	4.65	4.68	5.27	5.15	4.77	4.62	4.50	4.79	5.54	5.65	5.48	5.42	4.69	3.49	3.44	4.35	4.36	4.06	4.19	4.21	4.12	4.04	4.08	4.31	4.42	4.20	4.00	4.03	4.06	3.91	3.72	3.94	4.02	3.61	3.69	3.99	4.38	4.68	4.57	4.57	
3.22	2.88	2.44	2.30	2.22	2.15	2.26	2.38	2.37	2.38	2.44	2.51	2.42	2.30	2.29	2.33	2.44	2.53	2.52	2.46	2.44	2.57	2.64	2.56	2.62	2.84	3.13	3.12	2.93	2.93	2.89	2.70	2.66	2.81	2.67	2.78	3.04	2.79	2.89	2.98	2.72	3.12	3.28	2.98	3.18	3.30	3.16	3.19	3.10	3.32	3.49	3.27	3.61	3.92	3.53	2.98	2.64	3.11	3.89	3.79	3.64	3.94	4.29	4.47	4.32	4.44	5.34	5.46	5.13	4.88	4.57	5.14	5.38	5.63	5.65	5.14	5.10	5.16	5.25	5.12	5.02	5.02	4.92	4.74	4.46	4.11	4.08	4.54	4.60	4.67	4.97	4.99	5.00	4.86	4.68	4.59	4.86	5.14	5.21	5.28	5.11	4.15	3.70	4.31	4.38	4.18	4.17	4.21	4.15	4.02	3.95	4.03	4.18	4.11	4.00	3.97	3.99	3.88	3.66	3.78	3.89	3.60	3.76	3.83	3.90	4.44	4.57	4.57	
2.98	2.91	2.75	2.61	2.52	2.34	2.29	2.40	2.38	2.36	2.49	2.57	2.37	2.18	2.24	2.34	2.40	2.42	2.41	2.40	2.40	2.46	2.52	2.48	2.41	2.45	2.61	2.74	2.70	2.69	2.62	2.52	2.62	2.68	2.55	2.57	2.77	2.56	2.54	2.76	2.66	2.89	3.09	2.96	3.07	3.30	3.30	3.21	3.03	3.16	3.43	3.17	3.42	3.91	3.73	3.31	2.79	3.01	3.66	3.74	3.84	4.15	4.35	4.45	4.45	4.40	4.91	5.47	5.65	5.34	4.71	5.10	5.40	5.30	5.42	5.36	5.30	5.21	5.22	5.17	5.08	5.02	4.96	4.85	4.68	4.49	4.37	4.44	4.47	4.72	5.07	4.98	5.03	4.75	4.48	4.62	4.50	4.79	5.02	4.90	4.89	4.36	4.00	4.23	4.28	4.21	4.21	4.22	4.18	4.09	3.95	3.87	3.91	3.92	3.93	3.94	3.95	3.88	3.74	3.69	3.68	3.46	3.64	3.93	3.93	4.20	4.40	4.40	
2.73	2.64	2.60	2.59	2.59	2.49	2.33	2.40	2.38	2.32	2.47	2.68	2.46	2.12	2.17	2.33	2.39	2.34	2.38	2.42	2.39	2.44	2.42	2.38	2.34	2.39	2.44	2.45	2.41	2.44	2.40	2.42	2.61	2.66	2.65	2.64	2.65	2.52	2.36	2.56	2.84	2.80	2.93	2.98	2.92	3.18	3.40	3.34	3.09	3.06	3.30	3.16	3.24	3.74	3.77	3.59	3.24	3.01	3.35	3.60	3.86	4.42	4.42	4.14	4.48	4.56	4.48	5.08	5.68	5.79	5.19	4.99	5.44	5.37	5.17	5.22	5.35	5.35	5.30	5.26	5.18	5.12	5.06	4.98	4.85	4.73	4.63	4.52	4.30	4.30	4.75	4.89	5.02	4.82	4.44	4.66	4.50	4.66	4.94	4.85	4.74	4.44	4.27	4.27	4.25	4.20	4.21	4.23	4.19	4.12	4.06	3.98	3.90	3.85	3.85	3.85	3.82	3.79	3.74	3.68	3.65	3.51	3.46	3.71	3.85	3.99	4.13	4.13	
2.76	2.55	2.33	2.34	2.39	2.37	2.30	2.33	2.35	2.28	2.34	2.63	2.56	2.12	2.12	2.30	2.37	2.33	2.35	2.42	2.45	2.47	2.31	2.21	2.26	2.35	2.40	2.48	2.49	2.43	2.38	2.45	2.59	2.55	2.57	2.76	2.74	2.56	2.34	2.43	2.87	2.85	2.86	2.97	2.87	3.00	3.29	3.41	3.23	3.13	3.22	3.18	3.17	3.55	3.62	3.47	3.56	3.20	3.12	3.43	3.75	4.44	4.54	4.16	4.52	4.70	4.25	4.62	5.39	5.85	5.55	5.01	5.17	5.32	5.21	5.19	5.28	5.33	5.35	5.34	5.28	5.22	5.15	5.07	4.97	4.87	4.79	4.67	4.42	4.18	4.37	4.59	4.74	4.73	4.53	4.57	4.48	4.50	4.64	4.68	4.63	4.46	4.37	4.32	4.27	4.22	4.23	4.22	4.19	4.17	4.12	4.04	3.93	3.81	3.81	3.81	3.76	3.77	3.72	3.64	3.60	3.55	3.61	3.67	3.60	3.66	3.76	3.76	
2.87	2.64	2.31	2.24	2.30	2.28	2.21	2.27	2.29	2.27	2.29	2.50	2.55	2.15	2.09	2.23	2.31	2.34	2.29	2.31	2.41	2.53	2.32	2.09	2.21	2.32	2.29	2.33	2.41	2.43	2.40	2.44	2.54	2.45	2.35	2.64	2.80	2.62	2.42	2.39	2.76	2.89	2.74	2.79	2.87	2.95	3.11	3.26	3.31	3.20	3.21	3.26	3.28	3.53	3.51	3.29	3.54	3.48	3.16	3.33	3.87	4.37	4.29	4.26	4.70	4.96	4.43	4.35	5.08	5.71	5.55	5.13	5.02	5.11	5.18	5.28	5.38	5.38	5.38	5.41	5.38	5.33	5.27	5.20	5.11	5.00	4.91	4.81	4.66	4.46	4.41	4.47	4.50	4.50	4.47	4.49	4.52	4.48	4.47	4.50	4.47	4.43	4.36	4.30	4.25	4.20	4.21	4.17	4.12	4.15	4.18	4.23	4.17	4.01	4.01	3.94	3.83	3.88	3.83	3.70	3.60	3.50	3.80	4.15	3.85	3.46	3.38	3.38	
2.92	2.72	2.44	2.32	2.34	2.33	2.21	2.22	2.22	2.21	2.30	2.47	2.47	2.19	2.14	2.17	2.21	2.27	2.23	2.29	2.36	2.54	2.46	2.07	2.16	2.30	2.32	2.27	2.22	2.36	2.46	2.57	2.60	2.45	2.24	2.42	2.69	2.59	2.46	2.37	2.67	2.96	2.71	2.64	2.79	3.00	3.03	3.02	3.28	3.18	3.07	3.15	3.44	3.59	3.43	3.32	3.51	3.65	3.31	3.29	3.96	4.57	4.24	4.16	4.76	5.19	5.00	4.73	5.12	5.50	5.41	5.19	5.10	5.12	5.16	5.32	5.53	5.55	5.51	5.51	5.49	5.44	5.38	5.32	5.22	5.13	5.03	4.94	4.83	4.72	4.65	4.61	4.56	4.53	4.48	4.46	4.53	4.52	4.47	4.41	4.33	4.25	4.22	4.22	4.20	4.20	4.21	4.17	4.10	4.10	4.04	4.16	4.26	4.12	4.21	4.17	4.01	4.04	4.02	3.81	3.70	3.46	3.50	4.18	4.47	3.82	3.27	3.27	
2.86	2.70	2.46	2.36	2.34	2.26	2.18	2.18	2.14	2.08	2.19	2.46	2.40	2.08	2.16	2.28	2.19	2.21	2.15	2.25	2.32	2.42	2.55	2.22	2.11	2.22	2.29	2.28	2.19	2.26	2.39	2.56	2.64	2.48	2.24	2.30	2.52	2.50	2.44	2.31	2.59	2.95	2.72	2.62	2.73	3.00	2.96	2.90	3.26	3.24	2.99	3.02	3.49	3.60	3.34	3.24	3.50	3.78	3.42	3.32	3.85	4.67	4.58	4.17	4.69	5.13	5.22	5.22	5.37	5.52	5.39	5.23	5.20	5.24	5.25	5.37	5.59	5.69	5.69	5.67	5.62	5.55	5.49	5.44	5.34	5.23	5.13	5.05	4.96	4.87	4.79	4.68	4.62	4.60	4.55	4.50	4.50	4.54	4.57	4.44	4.36	4.13	4.00	4.18	4.26	4.33	4.21	4.15	4.19	4.21	4.03	3.85	3.98	3.84	3.80	3.94	3.87	3.93	4.08	3.80	3.58	3.31	3.08	3.51	4.26	4.24	3.81	3.81	
2.82	2.64	2.32	2.31	2.41	2.18	2.07	2.09	2.04	1.94	1.95	2.30	2.38	1.98	1.99	2.37	2.30	2.14	2.11	2.22	2.28	2.21	2.45	2.40	2.15	2.20	2.24	2.20	2.19	2.26	2.35	2.49	2.61	2.50	2.28	2.26	2.35	2.40	2.39	2.27	2.47	2.82	2.70	2.56	2.78	3.01	2.80	2.77	3.19	3.23	2.95	3.04	3.50	3.56	3.34	3.18	3.46	3.85	3.57	3.42	3.71	4.47	4.76	4.44	4.77	5.12	5.26	5.42	5.56	5.62	5.48	5.30	5.29	5.39	5.44	5.56	5.73	5.83	5.86	5.84	5.78	5.69	5.61	5.56	5.46	5.32	5.21	5.12	5.05	5.01	4.96	4.75	4.58	4.59	4.57	4.60	4.62	4.55	4.74	4.83	4.70	4.23	3.91	4.07	4.28	4.56	4.31	4.06	4.13	4.32	4.39	4.06	4.21	4.21	3.74	3.75	3.74	3.74	3.97	3.94	3.68	3.25	2.94	3.11	3.61	3.99	4.06	4.06	
2.81	2.76	2.41	2.31	2.52	2.31	2.14	2.10	2.02	1.88	1.79	2.02	2.17	1.97	1.84	2.24	2.39	2.03	1.96	2.24	2.34	2.13	2.27	2.41	2.20	2.19	2.23	2.16	2.10	2.20	2.32	2.42	2.62	2.56	2.34	2.26	2.25	2.28	2.25	2.27	2.42	2.63	2.64	2.47	2.81	3.09	2.75	2.66	3.02	3.15	2.90	3.02	3.48	3.56	3.33	3.18	3.41	3.84	3.76	3.60	3.78	4.34	4.71	4.70	4.92	5.24	5.45	5.62	5.74	5.77	5.68	5.46	5.37	5.52	5.67	5.84	6.00	6.09	6.09	6.02	5.92	5.78	5.69	5.68	5.58	5.41	5.30	5.21	5.07	5.06	5.19	5.04	4.62	4.47	4.43	4.43	4.70	4.62	4.54	5.03	5.07	4.30	3.88	4.01	4.32	4.69	4.48	4.05	3.93	4.20	4.51	4.29	4.46	4.81	4.54	4.22	3.99	4.00	4.04	4.05	3.96	3.52	3.06	2.94	3.33	3.65	3.68	3.68	
2.52	2.72	2.67	2.52	2.69	2.57	2.39	2.27	2.10	1.94	1.79	1.84	1.83	1.87	1.90	2.15	2.43	2.02	1.86	2.19	2.34	2.11	2.15	2.30	2.19	2.16	2.22	2.25	2.11	2.11	2.20	2.23	2.45	2.59	2.48	2.29	2.26	2.30	2.14	2.21	2.43	2.48	2.52	2.38	2.71	3.09	2.88	2.71	2.86	3.07	2.88	2.90	3.36	3.52	3.34	3.17	3.30	3.78	3.93	3.80	3.98	4.34	4.65	4.81	5.03	5.35	5.61	5.82	5.98	6.03	5.97	5.71	5.53	5.68	5.97	6.20	6.35	6.38	6.30	6.20	6.07	5.88	5.72	5.67	5.59	5.43	5.35	5.36	5.16	4.94	5.10	5.30	4.90	4.40	4.32	4.09	4.40	4.64	4.18	4.82	5.40	4.58	3.83	3.93	4.55	4.98	4.85	4.42	4.10	4.22	4.42	4.30	4.29	4.64	5.08	5.10	4.63	4.53	4.51	4.27	4.02	3.63	3.30	2.97	3.33	3.64	3.45	3.45	
2.24	2.42	2.54	2.63	2.92	2.97	2.80	2.55	2.22	2.08	1.92	1.81	1.62	1.57	1.77	2.07	2.44	2.17	1.97	2.19	2.33	2.13	2.04	2.20	2.14	2.10	2.19	2.28	2.27	2.18	2.19	2.16	2.18	2.40	2.46	2.27	2.17	2.26	2.11	2.10	2.39	2.45	2.42	2.31	2.55	2.97	2.96	2.76	2.75	2.98	2.89	2.84	3.21	3.39	3.33	3.20	3.22	3.65	3.94	3.96	4.16	4.43	4.69	4.88	5.10	5.43	5.73	5.98	6.26	6.48	6.44	6.12	5.88	6.02	6.41	6.67	6.75	6.73	6.49	6.26	6.08	5.95	5.82	5.65	5.57	5.42	5.43	5.49	5.39	5.07	4.86	5.13	5.15	4.51	4.24	3.89	3.95	4.55	4.09	4.35	5.36	5.13	4.12	3.78	4.28	4.94	5.23	5.07	4.76	4.78	4.74	4.57	4.52	4.34	4.68	5.21	5.07	4.99	5.01	4.90	4.54	3.81	3.42	3.12	3.26	3.55	3.45	3.45	
2.11	2.31	2.29	2.22	2.63	2.97	3.12	3.01	2.58	2.42	2.27	2.03	1.77	1.46	1.47	1.77	2.22	2.16	2.05	2.15	2.34	2.26	2.01	2.10	2.06	2.05	2.10	2.14	2.28	2.27	2.36	2.32	2.14	2.27	2.33	2.22	2.15	2.16	2.07	2.02	2.29	2.43	2.33	2.30	2.43	2.81	2.98	2.83	2.72	2.83	2.87	2.84	3.13	3.22	3.18	3.20	3.24	3.58	3.87	4.02	4.24	4.50	4.75	4.97	5.17	5.44	5.76	6.00	6.38	6.84	6.93	6.70	6.66	6.74	7.02	7.15	7.06	7.04	6.80	6.33	6.03	5.93	6.02	5.86	5.49	5.23	5.52	5.69	5.62	5.55	5.23	5.22	5.39	5.08	4.77	4.50	4.24	4.86	4.78	4.29	4.90	5.32	4.84	4.35	4.18	4.38	4.76	4.94	4.82	4.90	4.90	4.52	4.42	4.15	4.18	4.63	4.72	4.99	5.22	5.34	5.45	4.71	3.81	3.39	3.26	3.41	3.47	3.47	
1.82	2.18	2.23	1.94	2.10	2.40	2.75	2.98	2.87	2.78	2.63	2.42	2.28	1.86	1.58	1.63	1.93	2.04	2.00	2.01	2.17	2.23	2.04	2.02	1.98	1.99	2.05	2.00	2.05	2.09	2.27	2.44	2.27	2.28	2.27	2.14	2.15	2.13	2.03	1.95	2.16	2.38	2.30	2.27	2.35	2.66	2.93	2.89	2.82	2.76	2.75	2.82	3.10	3.07	3.00	3.13	3.29	3.56	3.84	4.03	4.27	4.56	4.81	5.09	5.32	5.43	5.75	6.05	6.41	7.00	7.14	7.02	8.71	7.54	7.47	7.63	7.20	7.15	7.24	6.79	6.23	5.49	5.50	5.95	5.41	4.78	5.28	5.92	6.04	6.03	6.10	6.07	5.83	5.63	5.55	5.44	5.05	5.11	5.36	5.01	4.89	5.07	4.92	4.74	4.49	4.23	4.22	4.32	4.23	4.34	4.62	4.40	4.12	3.86	3.89	4.12	4.09	4.30	4.66	4.90	5.41	5.48	4.66	3.94	3.64	3.53	3.53	3.53	
1.74	2.02	2.20	2.04	2.05	2.17	2.33	2.43	2.48	2.72	2.60	2.26	2.31	2.18	1.85	1.72	1.82	1.99	2.01	1.97	2.02	2.07	1.96	1.90	1.94	1.93	2.04	2.01	1.94	1.95	2.05	2.31	2.32	2.30	2.28	2.11	2.08	2.11	2.04	1.92	1.98	2.25	2.31	2.21	2.25	2.56	2.80	2.83	2.88	2.86	2.76	2.82	3.02	2.93	2.86	3.05	3.31	3.58	3.85	4.07	4.32	4.60	4.85	5.17	5.55	5.53	5.76	6.14	6.41	7.05	7.02	6.46	6.79	6.68	6.96	7.78	7.27	6.86	7.24	7.41	7.09	5.77	5.20	6.02	5.97	4.96	4.79	5.37	5.73	5.62	5.70	6.04	5.67	5.12	4.98	4.96	4.77	4.65	4.87	4.90	4.81	4.78	4.64	4.56	4.58	4.41	4.23	4.13	4.04	4.17	4.36	4.40	4.16	3.76	3.69	3.77	3.80	3.81	4.03	4.35	4.65	5.29	5.32	4.67	4.30	3.99	3.70	3.70	
1.79	1.97	2.17	2.17	2.18	2.33	2.47	2.19	2.03	2.49	2.62	2.13	2.04	2.17	1.98	1.78	1.78	1.93	2.06	2.07	2.09	2.09	1.95	1.80	1.83	1.88	1.98	2.03	1.96	1.91	1.97	2.14	2.15	2.20	2.29	2.13	2.04	2.06	2.02	1.96	1.87	2.00	2.25	2.19	2.13	2.45	2.67	2.68	2.78	2.90	2.89	2.89	2.93	2.81	2.79	3.02	3.35	3.63	3.89	4.12	4.36	4.63	4.88	5.12	5.67	5.71	5.72	6.18	6.50	7.06	6.89	5.95	5.87	5.90	5.71	7.06	7.44	6.65	6.68	7.31	7.71	7.09	6.23	5.99	6.11	5.44	4.64	4.68	4.88	4.79	4.88	5.45	5.48	5.00	4.72	4.68	4.56	4.52	4.55	4.50	4.46	4.47	4.46	4.42	4.42	4.30	4.22	4.05	3.99	4.17	4.27	4.36	4.30	4.00	3.81	3.68	3.70	3.66	3.76	4.04	4.05	4.45	4.94	4.70	4.46	4.43	4.29	4.29	
1.80	1.95	2.18	2.12	1.98	2.21	2.64	2.36	1.92	2.31	2.65	2.39	2.14	2.10	1.99	1.81	1.75	1.85	2.00	2.05	2.09	2.11	2.03	1.84	1.71	1.72	1.79	1.89	1.93	1.86	1.93	2.07	1.93	1.94	2.18	2.13	2.00	1.95	1.91	1.96	1.93	1.82	2.03	2.18	2.02	2.28	2.53	2.53	2.61	2.77	2.89	2.92	2.91	2.82	2.84	3.11	3.45	3.71	3.95	4.14	4.37	4.66	4.93	5.00	5.62	6.09	5.81	6.01	6.66	7.09	6.66	5.31	5.26	5.78	4.88	5.68	7.25	7.13	6.52	6.67	7.06	7.03	6.70	5.97	5.69	5.43	4.92	4.81	4.84	4.72	4.88	5.19	5.29	5.24	4.87	4.68	4.60	4.58	4.61	4.50	4.32	4.23	4.24	4.37	4.51	4.42	4.41	4.29	4.12	4.17	4.33	4.41	4.32	4.10	3.93	3.72	3.61	3.61	3.64	3.75	3.71	3.84	4.15	4.16	4.01	4.33	4.71	4.71	
1.69	1.84	2.17	2.10	1.88	2.02	2.44	2.43	1.99	2.13	2.41	2.34	2.31	2.18	2.05	1.86	1.71	1.77	1.90	1.98	1.97	1.97	1.97	1.89	1.78	1.70	1.65	1.68	1.83	1.86	1.90	2.04	1.90	1.75	1.95	2.12	2.05	1.88	1.78	1.84	1.98	1.83	1.79	2.06	2.02	2.09	2.31	2.37	2.43	2.56	2.68	2.75	2.86	3.19	2.98	3.23	3.55	3.83	3.98	4.12	4.39	4.72	5.09	5.02	5.40	6.54	6.59	6.63	8.37	8.33	7.02	5.22	4.72	5.47	4.84	4.61	5.99	7.13	6.95	6.62	6.49	6.57	6.71	6.28	5.91	5.55	5.18	5.10	5.10	4.96	5.00	5.10	5.02	5.08	4.95	4.80	4.74	4.65	4.72	4.82	4.68	4.52	4.36	4.39	4.72	4.89	4.90	4.86	4.73	4.49	4.56	4.71	4.59	4.31	4.11	3.91	3.62	3.57	3.61	3.65	3.66	3.73	3.83	3.94	3.82	4.09	4.62	4.62	
1.56	1.68	2.09	2.17	2.04	2.16	2.34	2.27	2.01	2.09	2.14	2.09	2.21	2.16	2.09	1.97	1.73	1.74	1.87	1.99	2.02	1.94	1.88	1.86	1.84	1.82	1.68	1.58	1.71	1.77	1.80	1.90	1.86	1.70	1.71	1.94	2.04	1.85	1.70	1.67	1.85	1.87	1.67	1.82	1.97	1.97	2.08	2.17	2.22	2.30	2.36	2.40	2.50	2.76	2.96	3.20	3.49	3.95	4.09	4.04	4.38	4.72	5.27	5.34	5.26	6.49	7.38	7.84	9.15	8.30	7.01	5.91	4.82	4.81	4.68	4.22	4.60	5.93	6.81	6.89	6.38	6.21	6.45	6.21	6.02	5.79	5.38	5.12	4.95	4.88	4.92	5.00	4.99	4.85	4.73	4.84	5.01	4.87	4.79	4.95	4.93	4.85	4.64	4.32	4.27	4.45	4.60	4.65	4.78	4.70	4.64	4.84	4.94	4.78	4.63	4.45	4.01	3.64	3.57	3.64	3.63	3.70	3.77	3.82	3.79	4.02	4.37	4.37	
1.68	1.65	1.84	2.02	2.06	2.22	2.47	2.32	1.99	2.10	2.03	1.94	2.12	2.05	1.96	1.97	1.81	1.72	1.82	1.93	2.02	1.97	1.83	1.79	1.76	1.76	1.65	1.55	1.68	1.66	1.70	1.80	1.73	1.61	1.58	1.74	1.88	1.79	1.70	1.58	1.64	1.82	1.64	1.62	1.79	1.82	1.89	1.96	1.99	2.02	2.04	2.04	2.10	2.36	2.69	3.00	3.19	3.70	4.11	3.88	4.14	4.44	4.93	5.35	5.20	5.76	6.60	6.97	6.79	5.99	5.53	5.37	4.68	4.12	4.13	4.19	4.40	5.20	6.16	6.62	6.21	5.78	5.90	5.86	5.62	5.52	5.34	5.11	4.91	4.82	4.85	4.86	4.94	4.87	4.45	4.33	4.68	4.69	4.58	4.66	4.63	4.56	4.49	4.31	4.10	4.00	4.09	4.14	4.19	4.39	4.39	4.49	4.71	4.66	4.73	4.77	4.65	4.15	3.73	3.71	3.61	3.56	3.71	3.88	3.90	4.00	4.14	4.14	
1.87	1.78	1.74	1.79	1.90	2.08	2.47	2.48	2.03	2.08	2.02	1.86	2.03	2.05	1.87	1.83	1.80	1.71	1.76	1.83	1.87	1.94	1.80	1.70	1.75	1.69	1.57	1.51	1.64	1.59	1.57	1.73	1.67	1.53	1.50	1.59	1.67	1.65	1.67	1.57	1.47	1.64	1.60	1.51	1.59	1.63	1.68	1.74	1.75	1.76	1.76	1.78	1.83	2.07	2.38	2.70	2.84	3.19	3.79	3.71	3.88	4.11	4.33	4.69	4.58	4.78	5.34	5.61	5.28	4.99	4.78	4.59	4.41	3.89	3.71	4.02	4.60	5.42	5.94	5.90	5.63	5.38	5.32	5.45	5.30	5.14	5.13	5.04	4.91	4.82	4.81	4.77	4.76	4.84	4.55	4.18	4.31	4.33	4.31	4.46	4.49	4.33	4.24	4.32	4.25	4.06	4.04	4.03	3.90	4.03	4.09	4.16	4.40	4.37	4.44	4.53	4.70	4.49	4.09	4.04	3.99	3.70	3.60	3.93	4.10	4.11	4.09	4.09	
1.96	1.90	1.83	1.75	1.73	1.85	2.35	2.58	2.18	2.03	2.02	1.87	1.86	1.94	1.84	1.76	1.74	1.70	1.74	1.78	1.73	1.84	1.78	1.57	1.72	1.70	1.61	1.54	1.55	1.53	1.45	1.60	1.58	1.48	1.47	1.46	1.45	1.48	1.51	1.52	1.42	1.40	1.45	1.40	1.41	1.45	1.46	1.50	1.52	1.53	1.54	1.58	1.61	1.80	2.13	2.36	2.50	2.86	3.29	3.33	3.56	3.78	3.92	4.10	3.89	3.97	4.48	4.81	4.66	4.55	4.56	4.25	4.06	3.88	3.70	3.88	4.64	6.48	6.59	5.29	4.92	4.91	4.94	5.07	5.12	4.99	4.96	4.93	4.83	4.75	4.78	4.77	4.69	4.69	4.57	4.34	4.24	4.16	4.13	4.25	4.38	4.27	4.12	4.22	4.26	4.13	4.06	4.02	3.90	3.97	4.01	3.98	4.21	4.25	4.22	4.42	4.63	4.51	4.31	4.24	4.34	4.12	3.69	3.81	4.03	4.20	4.33	4.33	
1.98	1.94	1.90	1.83	1.69	1.65	2.04	2.54	2.41	2.07	2.00	1.94	1.87	1.80	1.73	1.73	1.70	1.68	1.75	1.81	1.66	1.71	1.71	1.48	1.59	1.59	1.59	1.56	1.48	1.42	1.38	1.50	1.44	1.38	1.44	1.39	1.29	1.34	1.33	1.37	1.37	1.26	1.25	1.25	1.23	1.25	1.24	1.27	1.29	1.32	1.35	1.40	1.41	1.54	1.91	2.10	2.13	2.40	2.72	2.73	2.98	3.29	3.36	3.57	3.39	3.28	3.68	4.00	4.08	4.08	4.15	3.92	3.57	3.59	3.76	4.11	4.84	5.87	5.78	4.92	4.59	4.60	4.79	4.86	4.91	4.91	4.84	4.85	4.80	4.70	4.68	4.67	4.65	4.62	4.49	4.43	4.31	4.15	4.08	4.15	4.29	4.21	4.10	4.10	4.17	4.18	4.11	4.04	3.90	3.94	4.00	3.92	4.09	4.18	4.01	4.25	4.58	4.52	4.29	4.04	4.12	4.16	3.87	3.84	3.86	3.96	4.17	4.17	
1.99	1.96	1.93	1.88	1.77	1.63	1.75	2.23	2.51	2.33	2.11	2.00	1.97	1.85	1.68	1.68	1.69	1.65	1.71	1.85	1.74	1.67	1.60	1.45	1.52	1.52	1.46	1.52	1.47	1.29	1.28	1.43	1.35	1.26	1.33	1.30	1.19	1.20	1.20	1.19	1.20	1.14	1.09	1.07	1.05	1.04	1.02	1.02	1.06	1.11	1.16	1.22	1.23	1.30	1.64	1.91	1.97	2.00	2.24	2.39	2.53	2.78	2.69	2.73	2.76	2.72	3.05	3.42	3.63	3.71	3.73	3.39	3.19	3.44	3.86	4.49	5.15	5.59	5.50	5.06	4.75	4.59	4.74	4.83	4.83	4.87	4.79	4.78	4.76	4.71	4.68	4.56	4.55	4.58	4.42	4.40	4.37	4.21	4.12	4.16	4.27	4.21	4.18	4.10	4.06	4.08	4.08	4.02	3.87	3.88	3.88	3.85	4.01	4.14	3.96	3.91	4.07	4.23	4.23	3.99	3.91	3.93	3.91	3.94	3.99	3.94	3.88	3.88	
1.99	1.97	1.94	1.90	1.84	1.71	1.63	1.84	2.21	2.40	2.31	2.06	1.97	1.90	1.74	1.68	1.69	1.64	1.63	1.78	1.82	1.69	1.53	1.42	1.50	1.53	1.36	1.44	1.50	1.28	1.19	1.30	1.29	1.18	1.20	1.17	1.09	1.07	1.06	1.04	1.02	0.97	0.92	0.89	0.85	0.81	0.78	0.77	0.81	0.89	0.98	1.10	1.11	1.09	1.28	1.57	1.76	1.76	1.85	2.04	2.13	2.18	1.79	1.73	2.18	2.48	2.72	2.95	3.12	3.22	3.17	2.18	2.79	3.77	4.26	4.88	5.44	5.56	5.43	5.24	5.08	4.89	4.86	4.90	4.87	4.85	4.77	4.74	4.72	4.72	4.81	4.69	4.59	4.65	4.52	4.41	4.41	4.27	4.11	4.15	4.24	4.19	4.20	4.19	4.05	3.99	4.05	4.02	3.90	3.90	3.80	3.75	3.87	4.00	4.05	3.95	3.89	4.03	4.19	4.12	3.93	3.77	3.84	4.05	4.18	4.20	4.14	4.14	
1.99	1.97	1.95	1.92	1.87	1.79	1.66	1.64	1.79	2.07	2.28	2.11	1.93	1.83	1.74	1.67	1.67	1.65	1.58	1.69	1.81	1.72	1.50	1.36	1.46	1.51	1.29	1.30	1.38	1.28	1.14	1.14	1.16	1.11	1.11	1.04	0.98	0.95	0.93	0.90	0.86	0.81	0.76	0.72	0.66	0.60	0.54	0.52	0.55	0.63	0.74	0.93	1.11	1.07	1.06	1.20	1.34	1.40	1.47	1.55	1.55	1.42	0.43	0.81	2.02	2.47	2.65	2.75	2.77	2.79	2.91	3.06	3.62	4.28	4.74	5.12	5.47	5.46	5.18	5.05	5.07	4.99	4.86	4.81	4.83	4.83	4.74	4.65	4.64	4.69	4.79	4.75	4.62	4.65	4.59	4.46	4.45	4.38	4.17	4.08	4.18	4.17	4.16	4.26	4.11	3.99	4.09	4.10	3.98	3.97	3.84	3.73	3.73	3.79	4.00	4.01	3.92	3.99	4.13	4.21	4.09	3.77	3.68	3.92	4.01	4.11	4.26	4.26	
1.99	1.97	1.95	1.93	1.89	1.84	1.76	1.67	1.66	1.78	2.06	2.09	1.94	1.78	1.71	1.64	1.64	1.64	1.53	1.61	1.71	1.73	1.57	1.31	1.38	1.44	1.27	1.26	1.25	1.19	1.12	1.07	1.03	0.99	0.99	0.92	0.86	0.83	0.80	0.76	0.72	0.67	0.62	0.58	0.51	0.42	0.32	0.26	0.25	0.36	0.53	0.79	1.09	1.22	1.12	1.07	1.06	1.04	1.09	1.12	1.08	1.00	0.86	1.42	2.23	2.57	2.66	2.71	2.76	2.76	2.93	3.54	4.10	4.42	4.84	5.13	5.31	5.39	5.20	5.10	5.05	5.02	4.91	4.77	4.72	4.75	4.73	4.59	4.49	4.53	4.67	4.66	4.55	4.54	4.52	4.43	4.35	4.34	4.25	4.09	4.11	4.18	4.17	4.30	4.22	3.98	4.04	4.16	4.06	3.98	3.96	3.86	3.79	3.75	3.88	3.99	3.89	3.91	4.00	4.09	4.10	3.87	3.70	3.80	3.89	4.00	4.13	4.13	
1.98	1.97	1.95	1.93	1.90	1.87	1.82	1.77	1.71	1.71	1.84	1.95	1.90	1.77	1.67	1.59	1.60	1.60	1.51	1.52	1.52	1.59	1.58	1.37	1.36	1.35	1.23	1.22	1.19	1.11	1.03	1.00	0.94	0.87	0.84	0.79	0.73	0.69	0.66	0.63	0.60	0.58	0.56	0.54	0.49	0.42	0.33	0.21	0.06	0.19	0.50	0.82	1.02	1.08	0.94	0.83	0.82	0.82	0.82	0.84	0.86	0.98	1.34	1.83	2.28	2.57	2.69	2.71	2.84	2.99	3.15	3.64	4.16	4.37	4.69	5.05	5.19	5.24	5.14	5.00	4.92	4.86	4.84	4.81	4.71	4.70	4.71	4.59	4.43	4.37	4.48	4.56	4.54	4.50	4.48	4.44	4.32	4.25	4.21	4.06	3.96	4.06	4.12	4.24	4.26	4.04	3.98	4.14	4.15	3.99	4.03	4.03	4.02	3.93	3.88	4.01	3.94	3.90	3.95	4.00	4.00	3.87	3.78	3.81	3.89	4.00	4.06	4.06	
1.98	1.96	1.94	1.92	1.90	1.87	1.85	1.82	1.78	1.75	1.75	1.79	1.80	1.74	1.64	1.55	1.54	1.54	1.50	1.47	1.42	1.42	1.42	1.36	1.34	1.29	1.18	1.12	1.10	1.03	0.93	0.89	0.84	0.76	0.71	0.65	0.59	0.55	0.52	0.51	0.52	0.56	0.61	0.67	0.69	0.67	0.60	0.49	0.37	0.33	0.47	0.65	0.97	1.17	0.70	0.57	0.62	0.69	0.73	0.77	0.87	1.11	1.50	1.91	2.25	2.51	2.64	2.70	2.80	3.00	3.27	3.62	4.05	4.34	4.57	4.86	4.99	4.98	4.89	4.77	4.73	4.64	4.59	4.71	4.71	4.67	4.66	4.53	4.41	4.32	4.29	4.35	4.43	4.43	4.43	4.45	4.37	4.26	4.22	4.05	3.77	3.77	3.86	4.02	4.15	4.06	3.97	4.03	4.13	4.05	4.02	4.03	4.06	3.99	3.87	3.97	3.97	3.90	3.90	3.94	3.94	3.87	3.81	3.81	3.85	3.95	4.01	4.01	
1.97	1.95	1.94	1.92	1.90	1.88	1.85	1.83	1.81	1.78	1.76	1.74	1.72	1.69	1.63	1.57	1.52	1.50	1.48	1.44	1.40	1.36	1.31	1.26	1.25	1.22	1.13	1.06	1.02	0.94	0.85	0.78	0.72	0.65	0.57	0.51	0.44	0.39	0.37	0.39	0.46	0.58	0.73	0.88	0.98	1.01	0.94	0.81	0.67	0.56	0.50	0.47	0.86	1.61	0.83	0.65	0.63	0.66	0.71	0.80	0.96	1.22	1.57	1.91	2.19	2.45	2.61	2.71	2.86	3.02	3.28	3.59	3.91	4.18	4.40	4.63	4.76	4.75	4.69	4.65	4.69	4.62	4.42	4.44	4.47	4.47	4.53	4.45	4.36	4.31	4.24	4.20	4.23	4.27	4.27	4.32	4.37	4.31	4.33	4.26	3.83	3.65	3.69	3.75	3.83	3.83	3.85	3.91	3.98	4.00	3.98	3.96	4.00	3.96	3.86	3.88	3.92	3.90	3.88	3.89	3.90	3.88	3.84	3.83	3.84	3.91	3.96	3.96	
1.96	1.94	1.93	1.91	1.89	1.87	1.85	1.83	1.81	1.78	1.76	1.73	1.69	1.66	1.62	1.57	1.52	1.48	1.45	1.42	1.39	1.34	1.29	1.22	1.18	1.15	1.07	1.00	0.95	0.87	0.77	0.69	0.61	0.53	0.44	0.36	0.29	0.23	0.20	0.23	0.37	0.58	0.85	1.11	1.30	1.38	1.32	1.15	0.93	0.72	0.52	0.31	0.42	0.78	0.85	0.79	0.72	0.71	0.76	0.88	1.06	1.32	1.62	1.91	2.15	2.40	2.59	2.73	2.89	3.08	3.29	3.54	3.82	4.04	4.19	4.38	4.53	4.55	4.52	4.49	4.54	4.57	4.40	4.30	4.29	4.28	4.35	4.36	4.31	4.28	4.24	4.20	4.17	4.20	4.19	4.19	4.31	4.39	4.50	4.58	4.24	3.86	3.86	3.88	3.78	3.69	3.67	3.75	3.82	3.86	3.89	3.90	3.92	3.90	3.86	3.86	3.87	3.87	3.88	3.88	3.88	3.86	3.83	3.83	3.83	3.87	3.92	3.92	
1.95	1.93	1.92	1.91	1.89	1.87	1.85	1.82	1.80	1.77	1.75	1.72	1.68	1.64	1.61	1.56	1.51	1.46	1.42	1.38	1.35	1.31	1.26	1.19	1.14	1.09	1.02	0.94	0.87	0.79	0.69	0.60	0.50	0.40	0.31	0.25	0.21	0.17	0.10	0.04	0.25	0.54	0.92	1.32	1.63	1.76	1.69	1.47	1.16	0.83	0.54	0.26	0.28	0.63	0.83	0.86	0.80	0.79	0.85	0.98	1.15	1.38	1.65	1.91	2.14	2.36	2.56	2.73	2.90	3.09	3.31	3.53	3.77	3.95	4.05	4.17	4.29	4.34	4.30	4.26	4.26	4.32	4.33	4.27	4.22	4.18	4.21	4.26	4.26	4.24	4.21	4.20	4.18	4.21	4.19	4.12	4.14	4.24	4.45	4.70	4.66	4.28	4.14	4.26	4.13	3.80	3.63	3.64	3.69	3.76	3.79	3.83	3.85	3.85	3.84	3.85	3.85	3.83	3.84	3.84	3.84	3.84	3.81	3.82	3.82	3.84	3.87	3.87	
1.94	1.92	1.91	1.90	1.88	1.86	1.84	1.81	1.79	1.76	1.73	1.70	1.67	1.63	1.59	1.55	1.51	1.46	1.40	1.36	1.31	1.27	1.23	1.16	1.10	1.04	0.97	0.89	0.80	0.71	0.61	0.51	0.40	0.30	0.23	0.25	0.30	0.35	0.35	0.30	0.30	0.49	0.93	1.50	1.95	2.13	2.04	1.75	1.35	0.93	0.58	0.32	0.23	0.53	0.78	0.86	0.87	0.90	0.97	1.09	1.26	1.46	1.69	1.92	2.13	2.33	2.51	2.68	2.87	3.05	3.24	3.45	3.67	3.87	3.98	4.06	4.15	4.21	4.17	4.12	4.10	4.09	4.13	4.19	4.17	4.11	4.11	4.17	4.18	4.18	4.16	4.14	4.12	4.17	4.18	4.11	4.05	4.01	4.10	4.34	4.49	4.32	4.09	4.21	4.32	3.97	3.66	3.59	3.65	3.74	3.77	3.80	3.82	3.82	3.82	3.83	3.83	3.81	3.81	3.81	3.82	3.82	3.81	3.80	3.78	3.76	3.74	3.74	
1.92	1.91	1.90	1.89	1.87	1.85	1.83	1.80	1.78	1.75	1.72	1.69	1.65	1.62	1.58	1.54	1.49	1.45	1.39	1.34	1.29	1.24	1.19	1.13	1.06	0.99	0.92	0.84	0.75	0.65	0.53	0.42	0.31	0.22	0.25	0.36	0.50	0.62	0.68	0.71	0.73	0.73	0.98	1.67	2.28	2.49	2.34	1.96	1.50	1.04	0.67	0.49	0.26	0.44	0.72	0.85	0.92	0.99	1.08	1.21	1.36	1.54	1.73	1.92	2.12	2.29	2.46	2.66	2.85	3.01	3.20	3.39	3.56	3.73	3.84	3.92	4.00	4.06	4.01	3.95	4.00	4.04	4.04	4.16	4.26	4.18	4.11	4.10	4.07	4.05	4.06	4.05	4.00	4.00	4.06	4.03	3.98	3.92	3.90	4.05	4.20	4.16	4.01	4.09	4.29	4.13	3.82	3.58	3.64	3.77	3.76	3.78	3.78	3.78	3.79	3.81	3.81	3.79	3.77	3.77	3.76	3.75	3.79	3.83	3.82	3.70	3.59	3.59	
1.91	1.90	1.89	1.88	1.86	1.84	1.82	1.79	1.77	1.74	1.71	1.68	1.64	1.61	1.57	1.52	1.48	1.43	1.38	1.33	1.27	1.22	1.16	1.10	1.03	0.95	0.88	0.79	0.69	0.59	0.47	0.35	0.23	0.21	0.33	0.52	0.71	0.88	1.03	1.17	1.31	1.37	1.47	2.20	2.79	2.70	2.44	2.03	1.58	1.16	0.80	0.62	0.35	0.35	0.65	0.83	0.96	1.07	1.18	1.31	1.46	1.64	1.84	2.04	2.22	2.36	2.47	2.67	2.91	3.05	3.20	3.37	3.51	3.62	3.71	3.78	3.90	4.08	4.15	4.12	4.17	4.24	4.15	4.13	4.24	4.28	4.23	4.14	4.08	4.06	4.06	4.13	4.12	4.02	3.95	3.92	3.92	3.91	3.87	3.92	4.07	4.14	4.07	4.09	4.23	4.27	4.12	3.79	3.68	3.79	3.77	3.75	3.76	3.76	3.76	3.77	3.78	3.78	3.75	3.74	3.73	3.67	3.64	3.81	4.00	3.87	3.69	3.69	
1.90	1.89	1.88	1.87	1.85	1.83	1.81	1.79	1.76	1.73	1.70	1.67	1.63	1.59	1.55	1.51	1.47	1.42	1.37	1.31	1.25	1.20	1.14	1.07	1.00	0.92	0.84	0.75	0.65	0.53	0.41	0.28	0.18	0.23	0.43	0.66	0.88	1.11	1.35	1.61	1.89	2.13	2.42	4.02	4.12	2.58	2.22	1.90	1.54	1.20	0.89	0.58	0.22	0.32	0.63	0.84	0.99	1.12	1.25	1.41	1.59	1.76	1.97	2.22	2.44	2.59	2.62	2.68	2.88	3.04	3.17	3.33	3.49	3.60	3.71	3.83	3.96	4.24	4.44	4.46	4.44	4.45	4.35	4.15	4.11	4.25	4.43	4.48	4.39	4.32	4.27	4.26	4.30	4.29	4.11	3.93	3.92	3.92	3.90	3.86	3.92	4.07	4.20	4.14	4.08	4.20	4.19	3.98	3.82	3.82	3.81	3.74	3.73	3.74	3.74	3.73	3.72	3.74	3.74	3.74	3.81	3.70	3.46	3.53	3.85	3.96	3.93	3.93	
1.89	1.88	1.87	1.86	1.84	1.82	1.80	1.78	1.75	1.72	1.69	1.66	1.62	1.58	1.54	1.50	1.45	1.41	1.35	1.30	1.24	1.18	1.12	1.05	0.97	0.89	0.81	0.72	0.61	0.49	0.36	0.23	0.14	0.27	0.51	0.75	1.01	1.29	1.60	1.92	2.29	2.62	2.89	3.40	2.90	1.82	1.67	1.54	1.33	1.10	0.84	0.54	0.22	0.32	0.62	0.86	1.03	1.18	1.33	1.48	1.67	1.82	1.94	2.13	2.36	2.59	2.69	2.70	2.81	2.97	3.10	3.28	3.50	3.63	3.74	3.85	3.88	3.94	4.08	4.18	4.26	4.35	4.45	4.40	4.22	4.21	4.32	4.48	4.47	4.31	4.24	4.17	4.14	4.28	4.24	4.02	3.96	3.92	3.82	3.77	3.76	3.81	4.06	4.12	3.92	3.94	3.99	3.92	3.85	3.85	3.86	3.80	3.74	3.70	3.68	3.69	3.66	3.63	3.63	3.64	3.86	3.90	3.48	3.37	3.49	3.62	3.79	3.79	
1.89	1.87	1.86	1.85	1.83	1.81	1.79	1.77	1.74	1.71	1.68	1.65	1.61	1.57	1.53	1.49	1.44	1.39	1.34	1.29	1.23	1.17	1.11	1.03	0.96	0.88	0.79	0.69	0.59	0.46	0.33	0.19	0.12	0.30	0.54	0.80	1.08	1.39	1.72	2.06	2.42	2.72	2.80	2.52	1.76	1.05	1.02	1.07	1.00	0.88	0.69	0.44	0.23	0.36	0.62	0.86	1.07	1.22	1.34	1.46	1.61	1.76	1.86	2.00	2.18	2.39	2.56	2.67	2.78	2.93	3.04	3.18	3.41	3.55	3.60	3.61	3.60	3.59	3.64	3.72	3.82	3.89	4.05	4.23	4.13	3.97	3.91	3.98	4.06	4.05	4.02	4.03	4.02	4.04	4.08	4.01	4.00	4.00	3.79	3.61	3.64	3.66	3.79	3.92	3.88	3.84	3.84	3.79	3.76	3.79	3.84	3.86	3.85	3.82	3.73	3.71	3.72	3.61	3.51	3.44	3.66	3.93	3.58	3.45	3.59	3.49	3.47	3.47	
1.88	1.86	1.85	1.84	1.83	1.81	1.79	1.76	1.73	1.70	1.67	1.64	1.60	1.56	1.52	1.48	1.44	1.39	1.34	1.28	1.22	1.16	1.10	1.03	0.94	0.86	0.77	0.68	0.57	0.45	0.31	0.16	0.10	0.29	0.54	0.80	1.08	1.39	1.71	2.03	2.33	2.53	2.49	2.13	1.48	0.79	0.54	0.61	0.65	0.62	0.51	0.35	0.28	0.42	0.63	0.84	1.04	1.21	1.33	1.43	1.57	1.73	1.86	2.00	2.17	2.34	2.49	2.61	2.73	2.88	2.99	3.04	3.15	3.26	3.34	3.41	3.45	3.46	3.46	3.50	3.57	3.58	3.57	3.69	3.76	3.72	3.74	3.80	3.81	3.88	3.84	3.79	3.84	3.86	3.82	3.84	3.97	4.10	4.04	3.78	3.70	3.73	3.77	3.80	3.83	3.90	3.91	3.80	3.72	3.70	3.73	3.83	3.89	3.94	3.93	3.82	3.80	3.66	3.46	3.39	3.53	3.82	3.67	3.51	3.75	3.62	3.35	3.35	
1.87	1.85	1.85	1.84	1.82	1.80	1.78	1.76	1.73	1.70	1.67	1.63	1.60	1.56	1.52	1.47	1.43	1.38	1.33	1.27	1.21	1.15	1.09	1.02	0.94	0.86	0.77	0.67	0.57	0.44	0.31	0.16	0.06	0.26	0.50	0.76	1.03	1.31	1.60	1.87	2.09	2.20	2.12	1.80	1.31	0.76	0.36	0.26	0.34	0.39	0.36	0.31	0.36	0.50	0.67	0.85	1.02	1.21	1.36	1.48	1.61	1.75	1.89	2.04	2.19	2.34	2.47	2.59	2.68	2.78	2.92	2.98	3.04	3.13	3.20	3.31	3.39	3.42	3.42	3.44	3.47	3.52	3.53	3.52	3.54	3.55	3.62	3.72	3.67	3.74	3.84	3.79	3.79	3.91	3.89	3.82	3.95	4.04	4.06	3.99	3.91	3.80	3.79	3.84	3.75	3.85	4.01	3.94	3.80	3.74	3.70	3.73	3.73	3.75	3.94	3.99	3.92	3.75	3.43	3.36	3.52	3.73	3.72	3.51	3.63	3.57	3.29	3.29	
1.86	1.85	1.84	1.83	1.81	1.80	1.77	1.75	1.72	1.69	1.66	1.63	1.59	1.55	1.51	1.47	1.43	1.38	1.33	1.27	1.21	1.15	1.09	1.02	0.94	0.86	0.77	0.68	0.58	0.46	0.33	0.18	0.02	0.20	0.43	0.67	0.92	1.17	1.42	1.63	1.79	1.84	1.75	1.51	1.14	0.73	0.36	0.09	0.14	0.24	0.30	0.37	0.48	0.62	0.77	0.93	1.09	1.24	1.40	1.53	1.66	1.79	1.92	2.06	2.20	2.33	2.44	2.56	2.65	2.73	2.86	2.95	3.04	3.14	3.19	3.24	3.31	3.35	3.32	3.35	3.38	3.41	3.54	3.58	3.45	3.41	3.54	3.70	3.62	3.61	3.88	3.98	3.98	4.07	4.11	4.03	4.00	3.99	3.91	3.97	4.14	3.90	3.67	3.75	3.71	3.71	3.90	4.03	3.85	3.70	3.75	3.82	3.73	3.64	3.87	4.08	4.08	3.90	3.57	3.36	3.49	3.59	3.63	3.61	3.63	3.62	3.43	3.43	
1.86	1.84	1.84	1.83	1.81	1.79	1.77	1.75	1.72	1.69	1.66	1.62	1.59	1.55	1.51	1.47	1.42	1.38	1.32	1.27	1.21	1.15	1.09	1.03	0.95	0.87	0.78	0.69	0.59	0.48	0.36	0.22	0.06	0.12	0.33	0.56	0.78	1.00	1.20	1.37	1.48	1.50	1.42	1.23	0.97	0.66	0.37	0.15	0.13	0.24	0.34	0.45	0.58	0.73	0.86	1.01	1.17	1.30	1.43	1.57	1.70	1.82	1.95	2.07	2.20	2.32	2.43	2.54	2.65	2.74	2.88	2.95	3.04	3.17	3.26	3.27	3.32	3.36	3.25	3.23	3.27	3.30	3.44	3.72	3.61	3.38	3.46	3.76	3.83	3.70	3.84	3.83	3.79	3.83	3.90	4.01	4.07	4.09	3.93	3.89	4.21	4.20	3.82	3.69	3.71	3.65	3.67	3.92	3.87	3.66	3.69	3.88	3.75	3.57	3.85	4.14	4.18	3.97	3.69	3.38	3.47	3.59	3.57	3.67	3.73	3.73	3.65	3.65	
1.86	1.84	1.83	1.82	1.81	1.79	1.77	1.74	1.72	1.69	1.66	1.62	1.59	1.55	1.51	1.47	1.42	1.38	1.33	1.27	1.22	1.16	1.10	1.03	0.96	0.88	0.80	0.71	0.61	0.51	0.40	0.27	0.14	0.06	0.22	0.42	0.62	0.80	0.97	1.10	1.18	1.19	1.12	0.98	0.79	0.57	0.37	0.24	0.24	0.32	0.42	0.52	0.64	0.79	0.92	1.06	1.21	1.35	1.47	1.60	1.73	1.85	1.97	2.09	2.20	2.32	2.42	2.52	2.61	2.71	2.86	2.94	2.99	3.14	3.31	3.34	3.42	3.49	3.40	3.32	3.26	3.32	3.37	3.72	3.93	3.73	3.55	3.71	3.89	3.78	3.84	3.79	3.66	3.65	3.69	3.81	3.94	4.10	4.03	3.95	4.14	4.39	4.27	3.99	3.92	3.87	3.75	3.84	3.80	3.63	3.62	3.75	3.65	3.32	3.61	4.09	4.29	4.21	3.93	3.62	3.55	3.71	3.62	3.48	3.60	3.79	3.83	3.83	
1.85	1.84	1.83	1.82	1.80	1.79	1.77	1.74	1.72	1.69	1.66	1.62	1.59	1.55	1.51	1.47	1.43	1.38	1.33	1.28	1.22	1.16	1.10	1.04	0.98	0.90	0.82	0.74	0.65	0.55	0.45	0.33	0.22	0.11	0.12	0.27	0.44	0.60	0.74	0.84	0.90	0.91	0.86	0.76	0.63	0.48	0.36	0.31	0.34	0.42	0.52	0.62	0.73	0.86	0.99	1.12	1.25	1.39	1.51	1.64	1.77	1.88	1.99	2.10	2.20	2.31	2.42	2.50	2.58	2.65	2.75	2.87	2.91	3.08	3.34	3.42	3.64	3.75	3.66	3.62	3.55	3.53	3.48	3.57	3.80	3.92	3.74	3.61	3.68	3.64	3.73	3.83	3.73	3.64	3.64	3.69	3.75	3.88	3.94	3.89	3.91	4.09	4.21	4.10	4.05	4.10	4.07	4.09	3.94	3.69	3.72	3.74	3.60	3.15	3.14	3.58	3.93	4.16	4.12	4.01	3.92	3.94	3.86	3.50	3.44	3.77	3.96	3.96	
1.85	1.83	1.83	1.82	1.80	1.79	1.77	1.74	1.72	1.69	1.66	1.62	1.59	1.55	1.52	1.47	1.43	1.39	1.34	1.29	1.23	1.18	1.12	1.06	1.00	0.93	0.85	0.77	0.69	0.60	0.50	0.40	0.30	0.20	0.13	0.17	0.28	0.40	0.52	0.61	0.66	0.67	0.64	0.58	0.49	0.41	0.37	0.38	0.44	0.52	0.62	0.72	0.83	0.94	1.07	1.19	1.31	1.43	1.54	1.66	1.78	1.90	2.01	2.12	2.21	2.30	2.40	2.50	2.57	2.65	2.73	2.83	2.80	2.86	3.19	3.33	3.55	3.83	3.83	3.61	3.51	3.46	3.38	3.34	3.35	3.53	3.52	3.44	3.46	3.48	3.51	3.62	3.66	3.61	3.56	3.55	3.62	3.66	3.70	3.72	3.73	3.81	3.89	3.84	3.77	3.83	3.95	4.11	4.18	4.08	4.11	4.08	3.85	3.44	3.24	3.36	3.59	3.83	3.80	3.65	3.70	3.88	3.98	3.70	3.38	3.66	3.98	3.98	
1.85	1.83	1.83	1.82	1.80	1.79	1.77	1.74	1.72	1.69	1.66	1.63	1.59	1.56	1.52	1.48	1.44	1.39	1.35	1.30	1.25	1.19	1.13	1.07	1.02	0.96	0.88	0.81	0.73	0.65	0.56	0.47	0.39	0.30	0.22	0.18	0.19	0.26	0.34	0.41	0.45	0.47	0.46	0.44	0.40	0.39	0.40	0.46	0.53	0.62	0.72	0.81	0.92	1.02	1.13	1.25	1.36	1.47	1.58	1.68	1.79	1.91	2.01	2.12	2.22	2.30	2.40	2.50	2.58	2.65	2.70	2.81	2.81	2.66	2.76	2.92	3.02	3.36	3.65	3.43	3.26	3.24	3.20	3.08	3.13	3.46	3.66	3.61	3.46	3.47	3.46	3.45	3.53	3.55	3.54	3.50	3.54	3.59	3.61	3.64	3.67	3.72	3.72	3.72	3.60	3.46	3.55	3.66	3.72	3.77	3.90	4.06	4.09	3.96	3.82	3.68	3.66	3.86	3.86	3.53	3.43	3.56	3.74	3.78	3.45	3.54	3.88	3.88	
1.85	1.83	1.83	1.82	1.80	1.79	1.77	1.74	1.72	1.69	1.66	1.63	1.60	1.56	1.53	1.49	1.45	1.41	1.36	1.31	1.26	1.21	1.16	1.10	1.04	0.99	0.92	0.85	0.78	0.70	0.63	0.55	0.47	0.40	0.33	0.27	0.24	0.23	0.26	0.29	0.33	0.35	0.36	0.37	0.39	0.42	0.48	0.55	0.63	0.71	0.81	0.90	1.00	1.10	1.20	1.30	1.41	1.51	1.62	1.72	1.81	1.92	2.02	2.12	2.22	2.31	2.39	2.50	2.58	2.66	2.70	2.75	2.84	2.77	2.71	2.73	2.73	3.03	3.47	3.35	3.18	3.24	3.35	3.24	3.06	3.21	3.58	3.79	3.69	3.64	3.59	3.50	3.48	3.49	3.50	3.50	3.53	3.56	3.59	3.59	3.66	3.69	3.65	3.79	3.83	3.62	3.58	3.68	3.68	3.65	3.73	3.81	3.90	3.92	3.85	3.70	3.53	3.70	3.97	3.85	3.67	3.56	3.56	3.82	3.70	3.60	3.80	3.80	
1.85	1.83	1.83	1.82	1.81	1.79	1.77	1.75	1.72	1.70	1.67	1.64	1.60	1.57	1.54	1.50	1.46	1.42	1.37	1.33	1.28	1.23	1.18	1.12	1.07	1.02	0.96	0.89	0.83	0.76	0.69	0.62	0.56	0.49	0.43	0.38	0.34	0.32	0.31	0.31	0.33	0.36	0.38	0.42	0.46	0.51	0.57	0.64	0.72	0.80	0.89	0.98	1.07	1.16	1.26	1.36	1.45	1.55	1.65	1.75	1.85	1.94	2.04	2.13	2.21	2.31	2.39	2.50	2.58	2.66	2.74	2.70	2.69	2.73	2.83	2.87	2.77	2.93	3.46	3.51	3.21	3.22	3.34	3.39	3.22	2.96	3.13	3.46	3.61	3.67	3.65	3.59	3.54	3.53	3.49	3.47	3.53	3.58	3.61	3.57	3.68	3.73	3.59	3.73	3.91	3.91	3.82	3.88	4.01	4.07	4.15	4.15	4.09	4.00	3.80	3.56	3.45	3.50	3.65	3.72	3.73	3.53	3.28	3.55	3.74	3.66	3.69	3.69	
1.85	1.83	1.83	1.82	1.81	1.79	1.77	1.75	1.73	1.70	1.67	1.64	1.61	1.58	1.54	1.51	1.47	1.43	1.39	1.35	1.30	1.25	1.21	1.15	1.10	1.06	1.00	0.93	0.88	0.82	0.76	0.70	0.64	0.58	0.53	0.49	0.45	0.43	0.41	0.41	0.42	0.44	0.47	0.51	0.55	0.61	0.67	0.74	0.81	0.89	0.97	1.06	1.14	1.23	1.32	1.41	1.50	1.59	1.69	1.78	1.87	1.96	2.06	2.14	2.23	2.31	2.36	2.45	2.55	2.68	2.89	2.90	2.60	2.33	2.48	2.83	2.89	2.82	3.27	3.66	3.49	3.38	3.35	3.38	3.42	3.23	3.14	3.26	3.39	3.53	3.61	3.57	3.50	3.51	3.49	3.47	3.48	3.55	3.64	3.63	3.77	3.80	3.52	3.45	3.58	3.68	3.61	3.55	3.53	3.54	3.70	3.85	4.08	4.28	4.18	3.67	3.43	3.63	3.67	3.52	3.77	3.70	3.11	3.17	3.63	3.65	3.48	3.48	
1.85	1.84	1.83	1.83	1.81	1.80	1.78	1.76	1.73	1.71	1.68	1.65	1.62	1.59	1.56	1.52	1.48	1.45	1.41	1.37	1.32	1.28	1.23	1.18	1.13	1.09	1.04	0.98	0.93	0.88	0.82	0.77	0.72	0.67	0.63	0.59	0.56	0.54	0.53	0.52	0.53	0.55	0.58	0.62	0.66	0.71	0.77	0.83	0.90	0.97	1.05	1.13	1.21	1.29	1.37	1.46	1.54	1.63	1.72	1.80	1.89	1.98	2.07	2.15	2.24	2.35	2.40	2.39	2.46	2.59	3.05	3.46	3.13	2.51	2.33	2.69	2.87	2.66	2.89	3.32	3.43	3.43	3.40	3.37	3.40	3.35	3.25	3.24	3.30	3.37	3.52	3.55	3.46	3.44	3.45	3.46	3.45	3.47	3.52	3.54	3.76	3.90	3.62	3.35	3.41	3.49	3.35	3.30	3.24	3.20	3.24	3.27	3.48	3.85	4.27	4.05	3.51	3.65	3.89	3.54	3.69	4.00	3.44	3.14	3.60	3.76	3.58	3.58	
1.85	1.84	1.84	1.83	1.82	1.80	1.78	1.76	1.74	1.72	1.69	1.66	1.63	1.60	1.57	1.53	1.50	1.46	1.43	1.39	1.35	1.30	1.26	1.21	1.16	1.12	1.09	1.03	0.98	0.93	0.89	0.84	0.80	0.76	0.72	0.69	0.66	0.64	0.64	0.63	0.64	0.66	0.68	0.72	0.76	0.81	0.86	0.92	0.99	1.05	1.12	1.20	1.27	1.35	1.43	1.51	1.58	1.66	1.75	1.83	1.91	2.00	2.08	2.16	2.22	2.35	2.50	2.43	2.38	2.28	2.56	3.36	3.67	3.52	3.11	3.03	3.06	2.78	2.81	3.03	3.16	3.23	3.27	3.29	3.30	3.29	3.24	3.20	3.20	3.22	3.34	3.51	3.49	3.42	3.41	3.41	3.43	3.45	3.43	3.36	3.54	3.86	3.72	3.40	3.42	3.57	3.47	3.28	3.18	3.25	3.27	3.14	3.18	3.31	3.70	3.96	3.62	3.58	3.86	3.59	3.48	3.89	3.62	3.22	3.52	3.79	3.76	3.76	
1.86	1.84	1.84	1.84	1.82	1.81	1.79	1.77	1.75	1.72	1.70	1.67	1.64	1.61	1.58	1.55	1.52	1.48	1.45	1.41	1.37	1.33	1.29	1.25	1.20	1.16	1.13	1.08	1.03	0.99	0.95	0.91	0.87	0.84	0.80	0.78	0.76	0.74	0.74	0.74	0.75	0.76	0.79	0.82	0.86	0.90	0.95	1.01	1.07	1.13	1.19	1.26	1.33	1.40	1.48	1.55	1.62	1.70	1.78	1.86	1.94	2.03	2.10	2.15	2.21	2.27	2.47	2.51	2.37	2.10	1.98	2.41	2.97	3.37	3.37	3.30	3.23	2.99	2.93	3.01	3.09	3.13	3.17	3.20	3.23	3.22	3.20	3.20	3.18	3.16	3.18	3.31	3.39	3.35	3.34	3.33	3.34	3.38	3.44	3.43	3.51	3.78	3.66	3.44	3.44	3.58	3.78	3.55	3.13	3.19	3.39	3.25	3.15	3.24	3.42	3.66	3.58	3.59	3.84	3.62	3.43	3.72	3.55	3.19	3.39	3.71	3.80	3.80	
1.86	1.85	1.85	1.84	1.83	1.81	1.80	1.78	1.76	1.73	1.71	1.68	1.65	1.63	1.60	1.56	1.53	1.50	1.47	1.43	1.39	1.36	1.32	1.28	1.24	1.20	1.17	1.13	1.08	1.05	1.01	0.98	0.94	0.91	0.89	0.86	0.85	0.84	0.83	0.84	0.84	0.86	0.88	0.91	0.95	0.99	1.03	1.09	1.14	1.20	1.26	1.32	1.39	1.45	1.53	1.60	1.66	1.73	1.80	1.88	1.96	2.06	2.17	2.21	2.26	2.31	2.44	2.60	2.51	2.20	2.06	2.28	2.50	2.74	2.94	3.13	3.17	3.00	2.99	3.06	3.09	3.12	3.16	3.15	3.19	3.21	3.16	3.17	3.17	3.14	3.11	3.15	3.25	3.28	3.23	3.24	3.23	3.19	3.26	3.37	3.57	3.84	3.70	3.45	3.46	3.46	3.79	3.88	3.31	3.16	3.43	3.40	3.16	3.20	3.39	3.56	3.52	3.53	3.99	3.88	3.42	3.68	3.50	3.02	3.21	3.59	3.73	3.73	
1.87	1.85	1.85	1.85	1.83	1.82	1.80	1.79	1.76	1.74	1.72	1.69	1.67	1.64	1.61	1.58	1.55	1.52	1.49	1.45	1.42	1.39	1.35	1.31	1.28	1.24	1.20	1.18	1.14	1.10	1.07	1.04	1.01	0.99	0.96	0.94	0.93	0.92	0.92	0.92	0.93	0.95	0.97	1.00	1.03	1.07	1.11	1.16	1.21	1.27	1.32	1.38	1.44	1.50	1.57	1.64	1.70	1.76	1.84	1.90	1.97	2.05	2.16	2.28	2.36	2.38	2.43	2.62	2.78	2.60	2.39	2.47	2.56	2.61	2.72	2.91	3.08	3.01	3.00	3.07	3.09	3.13	3.19	3.16	3.16	3.16	3.12	3.12	3.11	3.10	3.13	3.13	3.18	3.24	3.20	3.20	3.20	3.09	3.03	3.08	3.38	3.76	3.83	3.57	3.44	3.44	3.67	3.88	3.46	3.23	3.46	3.50	3.20	3.07	3.26	3.53	3.53	3.33	3.81	4.10	3.55	3.74	3.76	3.02	3.05	3.49	3.63	3.63	
1.87	1.86	1.86	1.85	1.84	1.83	1.81	1.79	1.77	1.75	1.73	1.71	1.68	1.65	1.63	1.60	1.57	1.54	1.51	1.48	1.45	1.41	1.38	1.35	1.31	1.28	1.25	1.22	1.19	1.16	1.13	1.10	1.08	1.06	1.03	1.02	1.01	1.00	1.00	1.01	1.02	1.03	1.06	1.08	1.11	1.15	1.19	1.23	1.28	1.33	1.39	1.44	1.49	1.55	1.61	1.68	1.74	1.80	1.87	1.91	1.95	2.02	2.10	2.24	2.44	2.52	2.48	2.61	2.85	2.95	2.81	2.65	2.64	2.70	2.71	2.76	2.87	2.94	3.04	3.09	3.11	3.19	3.25	3.22	3.21	3.18	3.13	3.19	3.14	3.05	3.11	3.20	3.19	3.17	3.15	3.18	3.27	3.16	3.00	2.92	3.06	3.36	3.66	3.72	3.45	3.43	3.72	3.84	3.51	3.37	3.59	3.64	3.42	3.13	3.14	3.42	3.50	3.24	3.48	4.01	3.68	3.69	4.08	3.43	3.02	3.41	3.62	3.62	
1.88	1.87	1.86	1.86	1.85	1.84	1.82	1.80	1.78	1.76	1.74	1.72	1.69	1.67	1.64	1.62	1.59	1.56	1.53	1.50	1.47	1.44	1.41	1.38	1.35	1.32	1.29	1.26	1.23	1.21	1.18	1.15	1.14	1.12	1.10	1.09	1.08	1.08	1.08	1.08	1.10	1.11	1.13	1.16	1.19	1.22	1.26	1.30	1.34	1.39	1.44	1.49	1.54	1.60	1.66	1.71	1.77	1.82	1.92	1.98	1.96	2.01	2.10	2.15	2.37	2.55	2.42	2.37	2.48	2.71	2.94	2.94	2.86	2.91	2.91	2.87	2.85	2.84	3.04	3.14	3.11	3.20	3.35	3.36	3.38	3.44	3.40	3.49	3.53	3.28	3.18	3.34	3.42	3.34	3.19	3.14	3.33	3.31	3.12	2.97	2.99	3.10	3.31	3.67	3.54	3.40	3.72	3.87	3.53	3.49	3.70	3.64	3.52	3.25	3.13	3.33	3.49	3.29	3.29	3.77	3.65	3.46	3.97	3.79	3.21	3.36	3.60	3.60	
1.88	1.87	1.87	1.87	1.86	1.84	1.83	1.81	1.80	1.78	1.75	1.73	1.71	1.68	1.66	1.63	1.61	1.58	1.56	1.53	1.50	1.47	1.44	1.42	1.39	1.36	1.33	1.30	1.28	1.26	1.24	1.21	1.20	1.19	1.17	1.15	1.15	1.15	1.15	1.16	1.17	1.19	1.20	1.23	1.25	1.29	1.32	1.36	1.40	1.44	1.50	1.54	1.59	1.64	1.70	1.75	1.80	1.83	1.91	2.05	2.03	2.00	2.05	2.06	2.17	2.38	2.35	2.28	2.31	2.35	2.56	2.86	2.90	2.93	3.03	3.03	3.00	2.85	2.91	3.06	3.04	3.03	3.19	3.27	3.29	3.44	3.49	3.54	3.73	3.67	3.41	3.35	3.49	3.62	3.49	3.25	3.32	3.41	3.32	3.15	3.10	3.10	3.13	3.42	3.53	3.42	3.61	3.77	3.44	3.44	3.74	3.69	3.52	3.29	3.21	3.35	3.53	3.40	3.25	3.56	3.65	3.47	3.69	3.65	3.26	3.36	3.58	3.58	
1.89	1.88	1.88	1.88	1.86	1.85	1.84	1.82	1.81	1.79	1.77	1.75	1.72	1.70	1.68	1.65	1.63	1.60	1.58	1.55	1.53	1.50	1.47	1.45	1.42	1.40	1.37	1.35	1.32	1.31	1.29	1.27	1.25	1.24	1.23	1.22	1.21	1.22	1.22	1.22	1.24	1.25	1.27	1.29	1.32	1.35	1.38	1.42	1.45	1.50	1.54	1.59	1.63	1.68	1.73	1.78	1.83	1.86	1.89	2.01	2.05	1.99	1.94	1.99	2.19	2.38	2.43	2.42	2.51	2.48	2.40	2.63	2.80	2.82	2.88	2.90	2.93	2.89	2.89	2.99	3.01	2.98	3.01	2.95	2.93	3.03	3.07	3.11	3.27	3.50	3.51	3.29	3.30	3.48	3.54	3.44	3.35	3.40	3.38	3.27	3.20	3.15	3.12	3.22	3.36	3.37	3.51	3.61	3.36	3.27	3.51	3.68	3.63	3.36	3.24	3.35	3.51	3.48	3.31	3.37	3.56	3.62	3.67	3.53	3.13	3.24	3.52	3.52	
1.90	1.89	1.89	1.89	1.87	1.86	1.85	1.84	1.82	1.80	1.78	1.76	1.74	1.72	1.70	1.67	1.65	1.63	1.60	1.58	1.55	1.53	1.51	1.48	1.46	1.43	1.41	1.39	1.36	1.35	1.34	1.32	1.31	1.30	1.29	1.28	1.28	1.28	1.28	1.29	1.30	1.32	1.33	1.35	1.38	1.41	1.44	1.47	1.51	1.55	1.59	1.63	1.68	1.72	1.77	1.82	1.86	1.90	1.93	2.00	2.08	2.08	2.00	1.99	2.18	2.34	2.41	2.42	2.56	2.65	2.53	2.59	2.79	2.92	2.97	2.96	2.92	2.91	2.97	3.03	2.97	3.02	3.08	2.90	2.80	2.86	2.88	2.93	2.97	3.15	3.42	3.30	3.28	3.33	3.30	3.38	3.33	3.38	3.34	3.23	3.24	3.19	3.17	3.20	3.26	3.29	3.40	3.47	3.36	3.30	3.33	3.41	3.51	3.38	3.23	3.30	3.44	3.46	3.42	3.33	3.43	3.63	3.76	3.79	3.35	3.16	3.33	3.33	
1.91	1.90	1.90	1.89	1.88	1.87	1.86	1.85	1.83	1.81	1.80	1.78	1.76	1.73	1.71	1.69	1.67	1.65	1.63	1.60	1.58	1.56	1.54	1.51	1.49	1.47	1.45	1.43	1.41	1.39	1.38	1.37	1.36	1.35	1.35	1.34	1.33	1.33	1.34	1.35	1.36	1.38	1.39	1.41	1.44	1.46	1.49	1.52	1.56	1.60	1.64	1.68	1.72	1.76	1.81	1.85	1.89	1.93	1.97	2.03	2.13	2.20	2.19	2.18	2.22	2.26	2.32	2.33	2.46	2.57	2.46	2.43	2.64	2.84	3.00	3.13	3.10	2.99	3.02	3.14	3.02	3.00	3.07	2.89	2.79	2.79	2.81	2.84	2.83	2.88	3.10	3.13	3.22	3.37	3.32	3.28	3.20	3.31	3.35	3.19	3.18	3.19	3.19	3.21	3.27	3.31	3.37	3.39	3.33	3.29	3.31	3.30	3.32	3.32	3.24	3.26	3.35	3.39	3.44	3.40	3.41	3.50	3.56	3.81	3.72	3.40	3.34	3.34	
1.92	1.91	1.91	1.90	1.89	1.88	1.87	1.86	1.84	1.83	1.81	1.79	1.77	1.75	1.73	1.71	1.69	1.67	1.65	1.63	1.61	1.59	1.57	1.55	1.53	1.51	1.49	1.47	1.45	1.44	1.42	1.41	1.40	1.40	1.40	1.39	1.39	1.39	1.40	1.40	1.41	1.43	1.45	1.47	1.49	1.52	1.54	1.57	1.61	1.64	1.68	1.72	1.76	1.80	1.84	1.89	1.93	1.95	1.99	2.01	2.05	2.12	2.13	2.21	2.30	2.26	2.23	2.30	2.49	2.61	2.48	2.35	2.50	2.64	2.69	2.89	3.02	3.00	2.88	2.96	3.01	3.00	3.02	2.79	2.67	2.65	2.62	2.67	2.74	2.73	2.83	2.93	3.04	3.22	3.35	3.36	3.16	3.11	3.22	3.16	3.09	3.13	3.17	3.19	3.26	3.33	3.37	3.36	3.31	3.27	3.21	3.15	3.11	3.13	3.22	3.26	3.24	3.23	3.30	3.37	3.38	3.42	3.32	3.47	3.65	3.59	3.58	3.58	
1.93	1.91	1.92	1.91	1.90	1.90	1.88	1.87	1.86	1.84	1.82	1.81	1.79	1.77	1.75	1.73	1.71	1.69	1.67	1.65	1.63	1.61	1.60	1.58	1.56	1.54	1.52	1.51	1.49	1.48	1.47	1.46	1.45	1.44	1.44	1.44	1.45	1.45	1.45	1.46	1.46	1.48	1.50	1.52	1.54	1.56	1.59	1.62	1.65	1.68	1.72	1.76	1.80	1.84	1.88	1.93	1.96	1.97	1.99	2.00	2.01	2.04	2.01	2.09	2.30	2.32	2.18	2.22	2.51	2.70	2.65	2.49	2.50	2.62	2.59	2.58	2.75	3.06	2.87	2.72	2.84	2.94	3.15	2.93	2.64	2.66	2.58	2.58	2.81	2.81	2.78	2.86	2.94	3.05	3.19	3.40	3.33	3.14	3.21	3.20	3.10	3.09	3.09	3.15	3.26	3.39	3.53	3.51	3.49	3.55	3.43	3.27	3.15	2.95	3.11	3.38	3.33	3.18	3.13	3.18	3.27	3.41	3.29	3.25	3.35	3.50	3.71	3.71	
1.93	1.92	1.93	1.92	1.91	1.91	1.90	1.88	1.87	1.85	1.84	1.82	1.80	1.79	1.77	1.75	1.73	1.71	1.70	1.68	1.66	1.64	1.62	1.61	1.59	1.58	1.56	1.55	1.53	1.52	1.51	1.50	1.49	1.49	1.48	1.48	1.49	1.49	1.50	1.51	1.52	1.53	1.55	1.57	1.59	1.61	1.64	1.66	1.69	1.72	1.76	1.79	1.84	1.88	1.91	2.00	2.04	1.99	2.01	2.03	2.05	2.14	2.12	2.07	2.21	2.40	2.32	2.19	2.35	2.50	2.57	2.58	2.58	2.69	2.83	2.70	2.87	3.45	3.26	2.96	2.86	2.88	3.33	3.41	3.02	3.02	3.00	2.79	2.87	2.92	2.89	2.93	3.00	3.03	3.10	3.38	3.46	3.27	3.28	3.25	3.18	3.15	3.03	3.04	3.13	3.23	3.42	3.65	3.72	3.82	3.88	3.77	3.62	3.19	3.05	3.45	3.67	3.56	3.32	3.08	3.08	3.34	3.34	3.24	3.24	3.43	3.69	3.69	
1.94	1.93	1.94	1.93	1.93	1.92	1.91	1.90	1.88	1.87	1.85	1.84	1.82	1.80	1.79	1.77	1.75	1.74	1.72	1.70	1.68	1.67	1.65	1.64	1.62	1.61	1.59	1.58	1.57	1.56	1.55	1.54	1.54	1.53	1.53	1.53	1.53	1.53	1.54	1.56	1.57	1.58	1.59	1.61	1.63	1.65	1.68	1.70	1.73	1.76	1.79	1.82	1.87	1.91	1.93	2.03	2.21	2.15	2.07	2.09	2.06	2.20	2.28	2.08	1.99	2.21	2.33	2.32	2.38	2.41	2.44	2.51	2.58	2.74	3.03	2.99	3.11	3.77	3.79	3.37	3.20	3.03	3.24	3.54	3.49	3.33	3.30	3.15	2.87	2.78	2.85	2.89	3.02	3.08	3.04	3.25	3.39	3.25	3.15	3.12	3.16	3.23	3.13	3.00	2.98	2.97	2.85	3.08	3.45	3.58	3.72	3.78	3.81	3.55	3.11	3.17	3.55	3.77	3.69	3.32	3.11	3.27	3.33	3.25	3.24	3.45	3.70	3.70	
1.95	1.94	1.95	1.95	1.94	1.93	1.92	1.91	1.90	1.88	1.87	1.85	1.84	1.82	1.80	1.79	1.77	1.76	1.74	1.72	1.71	1.69	1.68	1.67	1.65	1.64	1.63	1.62	1.61	1.60	1.59	1.58	1.58	1.57	1.57	1.57	1.58	1.58	1.58	1.59	1.61	1.63	1.64	1.65	1.67	1.70	1.71	1.74	1.77	1.80	1.82	1.85	1.90	1.93	1.94	1.99	2.26	2.37	2.23	2.19	2.04	2.12	2.36	2.20	2.01	2.06	2.26	2.42	2.49	2.52	2.52	2.46	2.28	2.27	2.53	2.58	2.60	3.35	3.85	3.52	3.34	3.24	3.07	3.00	3.27	3.42	3.37	3.51	3.24	2.85	2.94	2.93	2.92	3.04	3.02	3.10	3.26	3.40	3.24	2.99	2.99	3.09	3.17	3.16	3.14	3.24	3.03	2.73	2.97	3.27	3.42	3.53	3.58	3.50	3.20	3.02	3.25	3.58	3.67	3.41	3.20	3.31	3.27	3.17	3.18	3.39	3.65	3.65	
1.96	1.96	1.96	1.96	1.95	1.94	1.93	1.92	1.91	1.90	1.88	1.87	1.85	1.84	1.82	1.81	1.79	1.78	1.76	1.75	1.73	1.72	1.71	1.69	1.68	1.67	1.66	1.65	1.64	1.63	1.63	1.62	1.62	1.61	1.61	1.61	1.62	1.62	1.63	1.63	1.65	1.66	1.68	1.69	1.71	1.74	1.76	1.77	1.79	1.83	1.85	1.88	1.92	1.95	1.97	1.98	2.15	2.38	2.40	2.37	2.26	2.28	2.47	2.43	2.24	2.06	2.16	2.39	2.44	2.50	2.62	2.65	2.40	2.13	2.12	2.25	2.30	2.72	3.42	3.37	3.27	3.47	3.53	2.97	2.75	3.09	3.17	3.39	3.53	3.16	3.02	3.06	2.93	3.07	3.22	3.15	3.11	3.40	3.45	3.08	2.97	3.01	3.08	3.17	3.17	3.25	3.25	2.88	2.75	2.97	3.21	3.45	3.47	3.38	3.27	3.17	3.30	3.52	3.66	3.41	3.07	3.25	3.32	3.19	3.21	3.34	3.49	3.49	
1.97	1.97	1.97	1.97	1.96	1.95	1.94	1.93	1.92	1.91	1.90	1.88	1.87	1.85	1.84	1.83	1.81	1.80	1.78	1.77	1.76	1.74	1.73	1.72	1.71	1.70	1.69	1.68	1.67	1.67	1.66	1.66	1.65	1.65	1.65	1.65	1.66	1.66	1.67	1.68	1.68	1.70	1.72	1.73	1.75	1.77	1.79	1.81	1.83	1.86	1.87	1.90	1.93	1.96	1.98	2.06	2.20	2.31	2.39	2.47	2.53	2.51	2.57	2.62	2.47	2.13	2.06	2.31	2.43	2.49	2.63	2.79	2.88	2.69	2.30	2.23	2.35	2.74	3.19	3.24	3.15	3.32	3.82	3.69	3.08	2.85	2.77	2.85	3.12	3.02	2.83	2.89	2.76	2.87	3.30	3.40	3.22	3.36	3.43	3.14	2.96	2.96	2.97	2.97	3.02	3.02	3.10	3.04	2.82	2.79	2.94	3.30	3.49	3.31	3.07	3.15	3.40	3.47	3.67	3.67	3.11	3.05	3.29	3.27	3.34	3.47	3.52	3.52	
1.99	1.98	1.98	1.98	1.97	1.96	1.96	1.95	1.93	1.92	1.91	1.90	1.88	1.87	1.86	1.84	1.83	1.82	1.80	1.79	1.78	1.77	1.76	1.75	1.74	1.73	1.72	1.71	1.70	1.70	1.69	1.69	1.69	1.69	1.69	1.69	1.69	1.70	1.70	1.71	1.72	1.73	1.75	1.77	1.79	1.81	1.83	1.84	1.86	1.88	1.90	1.92	1.94	1.96	1.95	2.06	2.30	2.36	2.27	2.27	2.43	2.47	2.47	2.63	2.66	2.39	2.26	2.32	2.42	2.46	2.53	2.69	2.88	3.10	2.93	2.65	2.63	2.82	3.08	3.19	2.99	2.86	3.37	3.74	3.62	3.37	3.02	2.99	3.13	3.11	3.03	2.91	2.66	2.52	2.90	3.31	3.40	3.62	3.59	3.17	2.83	2.71	2.78	3.04	3.25	3.08	3.08	3.16	3.09	2.95	2.73	2.84	3.30	3.38	2.93	2.99	3.40	3.35	3.55	3.83	3.34	2.99	3.15	3.26	3.32	3.45	3.57	3.57	
2.00	1.99	1.99	1.99	1.98	1.98	1.97	1.96	1.95	1.94	1.92	1.91	1.90	1.89	1.87	1.86	1.85	1.84	1.82	1.81	1.80	1.79	1.78	1.77	1.76	1.75	1.74	1.74	1.73	1.73	1.72	1.72	1.72	1.72	1.72	1.72	1.73	1.73	1.74	1.75	1.76	1.77	1.78	1.80	1.81	1.84	1.86	1.87	1.88	1.90	1.92	1.94	1.94	1.93	1.91	1.98	2.25	2.48	2.32	2.17	2.30	2.43	2.37	2.46	2.58	2.40	2.39	2.43	2.46	2.45	2.37	2.40	2.43	2.67	2.91	2.95	2.95	2.80	2.77	2.97	2.98	2.75	2.98	3.48	3.61	3.66	3.66	3.72	3.75	3.84	3.84	3.41	2.98	2.70	2.69	2.99	3.33	3.76	4.03	3.76	3.30	2.94	2.69	2.96	3.43	3.20	2.98	2.99	3.15	3.31	2.94	2.54	2.76	3.19	2.90	2.86	3.26	3.15	3.39	3.87	3.61	3.17	3.11	3.25	3.31	3.38	3.50	3.50	
2.01	2.00	2.00	2.00	1.99	1.99	1.98	1.97	1.96	1.95	1.94	1.92	1.91	1.90	1.89	1.88	1.86	1.85	1.84	1.83	1.82	1.81	1.80	1.79	1.78	1.78	1.77	1.76	1.76	1.75	1.75	1.75	1.75	1.75	1.75	1.75	1.76	1.76	1.77	1.78	1.79	1.80	1.81	1.83	1.84	1.86	1.88	1.90	1.92	1.93	1.94	1.95	1.95	1.90	1.85	1.88	2.09	2.52	2.59	2.30	2.25	2.43	2.50	2.51	2.45	2.17	2.14	2.43	2.59	2.55	2.41	2.30	2.23	2.10	2.01	2.26	2.77	2.86	2.66	2.75	2.95	2.74	2.62	3.15	3.54	3.51	3.50	3.73	3.72	3.78	4.23	4.18	3.65	3.30	3.06	2.94	3.16	3.60	3.98	4.08	3.95	3.52	2.99	2.97	3.43	3.38	2.94	2.76	2.92	3.38	3.42	2.90	2.58	2.80	2.71	2.71	3.12	2.91	2.96	3.53	3.62	3.30	3.11	3.20	3.27	3.35	3.42	3.42	
2.02	2.01	2.01	2.01	2.00	2.00	1.99	1.98	1.97	1.96	1.95	1.94	1.92	1.91	1.90	1.89	1.88	1.87	1.86	1.85	1.84	1.83	1.82	1.81	1.81	1.80	1.79	1.79	1.78	1.78	1.78	1.78	1.78	1.78	1.78	1.78	1.79	1.79	1.80	1.81	1.82	1.83	1.85	1.86	1.87	1.89	1.91	1.93	1.94	1.96	1.97	1.97	1.96	1.91	1.80	1.73	1.81	2.21	2.72	2.59	2.26	2.30	2.59	2.89	2.79	2.28	1.92	2.17	2.50	2.54	2.49	2.33	2.24	2.12	1.90	1.91	2.39	2.77	2.52	2.65	2.90	2.66	2.19	2.29	3.02	2.98	2.78	3.09	3.10	2.91	3.47	4.08	3.93	3.64	3.43	2.98	2.79	3.31	3.72	3.78	3.95	3.77	3.36	3.32	3.59	3.69	3.24	2.93	2.90	3.11	3.39	3.29	2.96	2.83	2.67	2.57	2.98	2.98	2.77	3.05	3.21	3.07	3.08	3.21	3.24	3.31	3.36	3.36	
2.04	2.03	2.03	2.02	2.01	2.01	2.00	1.99	1.98	1.97	1.96	1.95	1.94	1.93	1.91	1.90	1.89	1.88	1.87	1.86	1.86	1.85	1.84	1.83	1.82	1.82	1.81	1.81	1.81	1.80	1.80	1.80	1.80	1.80	1.80	1.81	1.81	1.82	1.83	1.84	1.85	1.86	1.87	1.89	1.90	1.92	1.93	1.95	1.97	1.98	1.99	2.00	1.99	1.96	1.88	1.78	1.68	1.80	2.42	2.78	2.56	2.27	2.32	2.85	3.18	2.73	2.19	2.16	2.49	2.59	2.53	2.48	2.42	2.48	2.39	2.20	2.38	2.64	2.38	2.61	3.04	2.88	2.27	1.98	2.63	2.65	2.49	2.80	2.90	2.69	2.80	3.35	3.44	3.37	3.40	3.09	2.65	2.91	3.44	3.55	3.69	3.72	3.47	3.39	3.64	3.83	3.58	3.31	3.22	3.20	3.28	3.33	3.19	3.01	2.78	2.52	2.72	2.97	2.89	3.02	3.05	2.78	2.91	3.20	3.32	3.42	3.47	3.47	
2.05	2.04	2.04	2.03	2.02	2.02	2.01	2.00	1.99	1.98	1.97	1.96	1.94	1.93	1.92	1.91	1.90	1.89	1.89	1.88	1.87	1.86	1.85	1.85	1.84	1.84	1.83	1.83	1.82	1.82	1.82	1.82	1.82	1.82	1.83	1.83	1.84	1.84	1.85	1.86	1.87	1.88	1.90	1.91	1.93	1.94	1.96	1.98	1.99	2.01	2.02	2.03	2.02	2.02	1.99	1.95	1.81	1.69	1.96	2.41	2.56	2.38	2.06	2.27	3.01	2.94	2.43	2.29	2.59	2.82	2.74	2.70	2.61	2.72	2.82	2.77	2.75	2.58	2.38	2.58	3.07	3.17	2.49	2.07	2.56	2.70	2.58	2.70	2.85	2.76	2.79	3.15	3.09	3.05	3.26	3.16	2.78	2.78	3.14	3.27	3.34	3.53	3.53	3.42	3.65	3.82	3.77	3.78	3.73	3.58	3.47	3.45	3.33	3.20	3.05	2.84	2.77	2.83	2.83	3.19	3.28	2.79	2.79	3.07	3.23	3.43	3.56	3.56	
2.07	2.06	2.05	2.05	2.03	2.02	2.01	2.00	1.99	1.98	1.97	1.96	1.95	1.94	1.93	1.92	1.91	1.91	1.90	1.89	1.88	1.87	1.87	1.86	1.86	1.85	1.85	1.84	1.84	1.84	1.84	1.84	1.84	1.84	1.85	1.85	1.86	1.86	1.87	1.88	1.89	1.91	1.92	1.93	1.95	1.96	1.98	2.00	2.01	2.03	2.04	2.05	2.06	2.06	2.05	2.03	1.96	1.84	1.87	2.03	2.18	2.28	2.07	1.99	2.63	2.91	2.50	2.27	2.51	2.78	2.81	2.79	2.55	2.52	2.74	2.96	3.06	2.56	2.35	2.67	3.07	3.25	2.66	2.30	2.59	2.69	2.58	2.60	2.69	2.66	2.81	3.20	3.10	2.87	3.03	3.13	2.97	2.93	3.17	3.11	2.82	2.98	3.29	3.40	3.55	3.72	3.73	3.84	4.05	4.00	3.86	3.93	3.91	3.67	3.51	3.41	3.35	3.07	2.69	3.03	3.33	2.87	2.76	3.00	3.12	3.34	3.53	3.53	
2.09	2.08	2.07	2.06	2.04	2.03	2.02	2.01	2.00	1.99	1.98	1.97	1.96	1.95	1.94	1.93	1.92	1.91	1.91	1.90	1.89	1.88	1.88	1.87	1.87	1.86	1.86	1.86	1.85	1.85	1.85	1.85	1.85	1.86	1.86	1.87	1.87	1.88	1.89	1.90	1.91	1.92	1.94	1.95	1.97	1.98	2.00	2.02	2.04	2.05	2.07	2.08	2.09	2.10	2.10	2.09	2.07	2.04	2.03	2.07	2.11	2.15	2.12	1.98	2.25	2.63	2.46	2.15	2.25	2.45	2.47	2.65	2.48	2.27	2.37	2.69	3.02	2.72	2.32	2.49	2.98	3.23	3.00	2.71	2.81	2.85	2.68	2.73	2.73	2.63	2.70	3.07	3.16	2.96	2.94	3.04	3.05	2.99	3.25	3.34	2.95	2.79	2.95	3.12	3.14	3.20	3.21	3.22	3.51	3.76	3.72	3.83	4.03	4.04	3.94	3.88	3.98	3.86	3.39	3.37	3.65	3.43	3.12	3.12	3.16	3.27	3.41	3.41	
2.10	2.09	2.08	2.07	2.05	2.04	2.03	2.02	2.01	2.00	1.99	1.98	1.97	1.96	1.95	1.94	1.93	1.92	1.92	1.91	1.90	1.90	1.89	1.89	1.88	1.88	1.87	1.87	1.87	1.87	1.87	1.87	1.87	1.88	1.88	1.89	1.89	1.90	1.91	1.92	1.93	1.94	1.96	1.97	1.99	2.00	2.02	2.04	2.06	2.07	2.09	2.11	2.12	2.13	2.13	2.13	2.13	2.13	2.13	2.18	2.20	2.16	2.13	2.00	2.07	2.37	2.35	2.03	2.10	2.28	2.23	2.49	2.45	2.18	2.20	2.49	2.90	2.83	2.32	2.26	2.77	3.18	3.18	2.83	2.89	3.05	2.90	2.89	2.86	2.70	2.65	2.92	3.16	3.16	3.05	2.97	2.98	2.96	3.23	3.56	3.46	3.08	2.87	2.94	2.91	2.87	2.92	2.90	3.03	3.29	3.30	3.36	3.67	4.00	4.12	4.08	4.25	4.43	4.26	4.05	4.14	4.01	3.53	3.26	3.19	3.23	3.32	3.32	
