ncols	128
nrows	92
xllcorner	280654.681342
yllcorner	3772085.885776
cellsize	500.000000
NODATA_value	-32768.000000
5.50	5.65	6.26	6.78	6.63	6.19	6.05	6.55	7.16	7.47	7.46	7.31	6.94	6.75	6.30	5.62	5.32	5.31	6.07	6.85	7.14	7.17	7.19	7.31	7.22	7.12	7.36	7.41	7.07	6.89	6.91	6.85	6.78	6.87	6.99	7.13	7.54	7.90	8.20	8.40	8.32	8.07	7.76	8.03	8.41	8.49	8.25	7.76	7.36	7.97	8.41	8.59	8.51	8.57	8.47	7.97	7.42	6.87	6.83	7.03	7.43	8.28	8.67	8.66	8.80	8.59	8.08	7.20	6.03	5.39	5.44	5.80	5.79	5.44	5.06	5.06	5.09	4.89	5.02	5.24	5.43	5.66	7.24	8.35	7.71	7.05	7.34	7.62	7.48	6.97	7.05	7.18	6.95	7.07	6.77	6.21	6.24	5.82	5.18	5.09	5.57	5.88	6.60	7.45	6.65	5.26	4.88	4.57	4.68	4.79	5.04	5.19	5.14	5.61	5.88	5.80	5.84	6.11	6.44	6.58	6.75	6.91	6.86	6.63	6.38	6.22	6.12	6.12	
5.50	5.65	6.26	6.78	6.63	6.19	6.05	6.55	7.16	7.47	7.46	7.31	6.94	6.75	6.30	5.62	5.32	5.31	6.07	6.85	7.14	7.17	7.19	7.31	7.22	7.12	7.36	7.41	7.07	6.89	6.91	6.85	6.78	6.87	6.99	7.13	7.54	7.90	8.20	8.40	8.32	8.07	7.76	8.03	8.41	8.49	8.25	7.76	7.36	7.97	8.41	8.59	8.51	8.57	8.47	7.97	7.42	6.87	6.83	7.03	7.43	8.28	8.67	8.66	8.80	8.59	8.08	7.20	6.03	5.39	5.44	5.80	5.79	5.44	5.06	5.06	5.09	4.89	5.02	5.24	5.43	5.66	7.24	8.35	7.71	7.05	7.34	7.62	7.48	6.97	7.05	7.18	6.95	7.07	6.77	6.21	6.24	5.82	5.18	5.09	5.57	5.88	6.60	7.45	6.65	5.26	4.88	4.57	4.68	4.79	5.04	5.19	5.14	5.61	5.88	5.80	5.84	6.11	6.44	6.58	6.75	6.91	6.86	6.63	6.38	6.22	6.12	6.12	
4.96	4.47	4.51	5.41	5.86	5.69	5.19	5.11	5.66	6.08	6.21	6.36	6.07	6.09	6.17	5.86	5.69	5.46	5.37	5.62	5.96	6.17	6.24	6.40	6.36	5.93	5.98	6.40	6.31	6.06	6.01	6.04	5.90	5.88	6.02	6.12	6.00	5.82	6.47	7.00	7.27	7.48	7.06	6.39	6.47	6.93	6.84	7.04	6.68	6.81	7.03	6.74	6.56	7.05	7.41	7.66	7.55	6.73	6.52	6.56	6.33	6.92	7.57	7.42	7.47	7.56	7.50	7.26	6.66	6.12	5.82	5.96	6.06	5.87	5.52	5.40	5.31	5.16	5.37	5.61	5.87	5.83	6.28	7.53	7.61	7.00	7.19	7.58	7.85	7.63	7.25	6.83	5.99	6.19	7.03	7.00	6.86	6.48	5.80	5.27	5.41	5.59	5.78	6.98	7.30	6.40	5.89	5.19	4.77	4.58	4.65	4.88	4.87	5.13	5.45	5.56	5.70	5.89	6.09	6.02	5.89	5.97	6.06	6.07	6.06	6.14	6.18	6.18	
5.49	4.66	3.88	4.34	5.35	5.84	5.27	4.64	4.87	5.12	5.16	5.61	5.77	5.80	6.05	6.13	5.94	5.43	5.01	5.05	5.23	5.20	5.09	5.23	5.48	5.26	5.06	5.42	5.69	5.69	5.53	5.58	5.58	5.45	5.39	5.23	4.93	4.81	5.24	5.44	5.59	6.14	6.16	5.54	5.77	6.30	5.73	5.90	5.70	5.51	5.78	5.42	5.48	5.84	5.78	6.74	7.87	7.01	6.10	6.25	5.74	5.55	6.14	5.94	5.90	6.57	7.18	7.37	7.18	6.86	6.34	6.14	6.37	6.43	6.18	5.97	5.81	5.80	6.12	6.27	5.94	5.15	5.18	6.82	7.67	7.22	6.92	6.88	7.38	7.83	7.77	7.47	6.18	5.69	6.69	7.27	7.56	7.15	6.64	6.04	5.39	5.07	5.07	6.35	7.57	7.89	7.80	7.06	5.78	4.88	4.76	4.82	4.81	4.91	5.06	5.27	5.52	5.61	5.75	5.76	5.58	5.59	5.70	5.70	5.74	5.92	6.05	6.05	
5.92	5.99	5.46	4.76	4.99	5.49	5.41	5.06	5.05	5.11	5.06	5.15	5.48	5.55	5.46	5.61	5.60	5.26	5.10	5.17	5.21	5.07	4.95	5.02	5.18	5.19	5.04	5.05	5.20	5.41	5.39	5.37	5.50	5.49	5.40	5.19	5.04	5.06	5.23	5.19	5.10	5.46	5.63	5.27	5.67	6.78	6.42	5.93	5.67	5.30	5.49	5.55	6.08	6.04	4.85	5.04	7.40	7.75	6.08	5.99	5.97	5.74	6.12	6.35	6.40	6.63	7.29	7.73	7.60	7.42	6.99	6.38	6.36	6.36	6.10	6.01	5.84	5.46	5.36	5.62	5.09	4.44	4.63	5.79	7.03	7.10	6.84	6.30	6.50	7.44	8.21	8.31	7.63	7.09	6.81	6.80	7.50	7.32	6.84	6.58	5.91	4.91	4.76	5.92	6.65	7.32	7.96	8.29	7.39	5.75	5.58	5.49	5.42	5.63	5.31	5.04	5.40	5.75	5.78	5.62	5.54	5.85	6.18	6.03	5.76	5.77	5.82	5.82	
4.87	5.60	5.88	4.88	4.34	4.43	4.38	4.46	4.70	4.92	5.16	5.00	4.91	5.11	5.13	5.24	5.39	5.24	5.06	5.07	5.17	5.17	5.12	5.18	5.21	5.12	5.02	5.02	5.05	5.13	5.17	5.16	5.20	5.21	5.21	5.12	4.97	4.83	4.93	5.13	5.17	5.53	5.60	4.88	4.81	5.91	6.45	6.49	6.46	6.11	5.71	5.76	6.40	6.63	5.58	4.19	5.37	7.80	6.85	5.55	5.60	6.05	6.43	6.78	7.16	6.87	6.97	7.69	7.96	8.10	7.76	7.06	7.03	7.02	6.56	5.84	4.85	4.55	4.72	5.10	5.22	4.58	3.85	4.03	5.15	6.00	6.61	6.03	5.65	6.18	7.10	7.17	6.58	6.95	7.12	7.09	7.27	7.24	7.28	7.42	7.16	5.83	4.69	5.40	6.14	6.20	6.80	8.17	8.29	6.25	5.41	5.42	5.59	6.34	6.37	5.51	5.61	6.26	6.59	6.00	5.10	5.31	5.90	6.07	6.07	5.95	5.82	5.82	
4.55	5.09	5.76	5.47	4.88	4.50	4.21	4.28	4.59	4.88	5.29	5.51	5.34	5.19	5.26	5.28	5.29	5.25	5.18	5.21	5.29	5.32	5.26	5.28	5.36	5.36	5.29	5.27	5.32	5.33	5.30	5.29	5.28	5.22	5.17	5.10	5.02	4.80	4.53	4.56	4.64	5.08	5.60	5.34	5.18	5.35	5.56	5.83	6.09	6.31	5.91	5.87	6.18	6.50	6.74	5.33	4.47	6.56	7.63	6.05	5.16	5.59	5.54	5.39	6.40	6.49	6.54	7.02	7.33	8.05	8.00	7.39	7.54	7.91	8.14	7.38	5.56	5.32	5.84	6.01	5.61	4.60	3.61	3.19	3.76	5.08	6.21	5.71	4.78	4.78	6.13	6.33	5.44	5.74	6.43	7.13	7.33	6.70	6.38	6.86	7.32	6.96	5.71	5.52	6.63	6.82	6.66	7.81	8.80	7.92	6.37	5.47	4.96	5.44	6.49	6.47	6.20	6.60	7.40	7.53	6.07	5.34	5.67	5.73	5.81	5.80	5.68	5.68	
4.83	5.23	5.79	6.11	6.27	5.85	5.21	4.88	4.79	4.89	5.13	5.52	5.79	5.67	5.60	5.53	5.36	5.29	5.22	5.16	5.12	5.19	5.29	5.33	5.33	5.31	5.29	5.28	5.27	5.24	5.19	5.14	5.10	5.03	4.96	4.86	4.77	4.69	4.50	4.28	4.19	4.38	4.89	5.23	5.44	5.49	5.23	5.16	5.24	5.38	5.48	5.75	5.83	5.89	6.45	6.27	5.41	5.63	7.22	6.74	4.81	4.45	4.61	4.86	5.73	5.55	5.72	6.10	6.36	7.52	7.81	6.89	6.52	6.71	7.30	8.02	7.36	6.49	5.72	5.58	5.78	5.80	5.34	4.25	4.20	5.19	6.52	6.61	5.54	4.93	6.26	6.55	5.94	5.83	6.08	6.64	7.34	7.16	6.01	5.64	6.01	6.54	6.02	5.60	6.54	7.18	6.76	7.08	8.09	8.70	8.62	7.56	6.14	5.17	5.24	5.72	5.84	5.97	6.56	7.67	7.48	6.48	6.58	6.58	6.34	6.07	5.83	5.83	
4.79	5.28	5.76	5.71	6.14	6.42	6.06	5.59	5.28	5.17	5.18	5.28	5.51	5.65	5.66	5.60	5.43	5.35	5.37	5.35	5.16	5.07	5.19	5.35	5.40	5.37	5.38	5.41	5.40	5.30	5.17	5.12	5.01	4.85	4.89	4.96	4.86	4.94	5.15	4.97	4.67	4.52	4.59	4.90	5.15	5.31	5.15	5.08	5.22	5.10	5.03	5.43	5.58	5.70	5.85	5.83	5.83	5.63	6.27	6.56	5.39	4.32	3.83	4.47	5.43	5.20	4.90	4.97	5.19	6.52	7.15	6.80	6.51	5.91	5.67	6.05	5.89	5.79	5.40	5.44	6.18	6.90	7.19	6.33	5.31	5.45	6.63	7.62	7.39	6.32	6.57	6.69	6.56	6.62	6.42	6.32	6.77	7.72	7.40	6.19	5.70	6.11	5.94	5.21	5.44	6.34	6.84	7.24	7.29	7.40	8.34	8.38	7.52	6.72	5.77	5.31	5.48	5.57	5.69	6.63	7.36	7.09	6.97	7.18	7.25	7.11	6.94	6.94	
4.56	5.00	5.66	5.51	5.38	5.65	5.81	5.76	5.54	5.31	5.17	5.12	5.07	5.16	5.34	5.41	5.38	5.33	5.36	5.51	5.44	5.21	5.18	5.33	5.44	5.39	5.39	5.43	5.40	5.19	4.90	4.94	5.10	5.01	5.11	5.34	5.27	5.09	5.21	5.34	5.23	5.04	4.84	4.74	4.79	4.89	4.78	4.65	4.93	5.23	5.03	4.87	5.08	5.45	5.64	5.48	5.44	5.60	6.15	6.46	6.73	6.23	4.27	3.83	4.66	5.15	4.75	4.53	4.92	6.30	6.56	6.83	7.85	7.92	7.27	6.07	5.58	6.05	6.71	6.83	6.16	5.79	6.26	6.17	5.48	5.25	5.74	6.65	7.62	7.26	6.53	6.21	6.01	6.68	6.86	6.12	5.91	6.80	7.88	7.25	6.39	6.39	6.14	5.29	5.07	5.42	5.88	6.56	6.40	5.86	6.79	7.38	6.56	6.36	6.29	5.74	5.78	6.15	6.05	6.20	6.42	6.37	6.20	5.95	5.87	6.58	7.28	7.28	
4.43	4.72	5.49	5.71	5.49	5.40	5.33	5.38	5.41	5.33	5.22	5.17	5.11	5.10	5.21	5.31	5.33	5.30	5.22	5.31	5.44	5.33	5.22	5.30	5.39	5.34	5.39	5.67	5.96	5.91	5.51	5.38	5.55	5.52	5.43	5.38	5.25	5.04	4.90	4.91	4.93	4.97	4.95	4.83	4.81	4.90	4.77	4.46	4.51	5.06	5.38	5.13	4.96	5.21	5.28	5.53	6.02	6.45	7.31	7.70	8.22	8.96	7.84	5.76	5.35	6.02	6.03	6.01	6.19	7.53	7.49	6.10	7.19	8.80	9.65	8.67	7.30	6.91	6.58	6.49	6.16	5.83	5.71	5.59	5.46	5.23	5.16	5.35	6.47	7.11	5.95	5.94	5.93	6.16	6.99	6.53	5.42	5.45	7.06	7.32	6.26	5.76	6.00	5.92	5.51	5.13	5.12	6.05	6.31	5.36	5.95	7.51	6.92	5.80	5.75	5.60	5.55	5.82	5.73	5.86	5.91	5.68	5.77	5.67	5.24	5.65	6.35	6.35	
4.29	4.38	4.93	5.32	5.30	5.26	5.18	5.17	5.23	5.30	5.31	5.26	5.10	5.07	5.15	5.18	5.27	5.35	5.29	5.21	5.27	5.20	5.08	5.18	5.30	5.20	5.14	5.45	6.12	6.61	6.52	6.23	5.95	5.54	5.22	5.12	5.05	4.93	4.87	4.72	4.59	4.79	4.99	4.91	4.90	5.08	5.03	4.60	4.20	4.23	4.79	5.36	5.34	5.24	4.96	5.16	5.97	6.58	7.03	7.36	7.58	8.57	9.77	9.22	8.27	8.00	8.07	7.92	6.95	7.13	8.37	6.58	5.48	6.55	9.12	9.58	7.43	6.22	6.25	6.27	6.25	6.55	6.28	5.69	5.51	5.32	5.22	5.26	6.26	7.23	5.75	5.57	6.33	6.36	6.73	6.89	5.69	4.93	6.07	6.61	5.85	5.45	5.95	6.72	6.74	6.14	5.80	6.38	7.16	6.27	5.31	6.87	7.97	7.15	6.26	5.62	5.43	5.55	5.36	5.44	5.56	5.48	5.65	5.75	5.80	5.90	5.95	5.95	
4.39	4.36	4.68	5.01	5.07	5.14	5.16	5.17	5.23	5.32	5.36	5.43	5.23	5.02	5.15	5.26	5.30	5.40	5.43	5.36	5.41	5.38	5.18	5.27	5.42	5.30	5.09	4.81	4.95	5.58	5.86	5.80	5.73	5.61	5.29	5.14	5.21	5.13	5.22	5.17	4.89	5.01	5.30	5.17	5.06	5.22	5.28	5.03	4.57	3.99	3.83	4.32	4.81	5.06	4.81	4.79	5.02	5.18	5.30	5.49	5.65	5.94	7.32	8.61	8.14	7.13	7.13	7.77	6.99	6.47	8.10	7.75	5.81	5.47	7.67	9.56	8.30	6.37	6.49	6.78	6.24	6.46	6.55	5.93	5.61	5.57	5.50	5.34	6.26	7.44	6.07	5.12	5.95	6.67	6.64	6.79	5.93	5.12	6.25	7.04	6.58	6.13	5.84	6.42	7.14	6.89	6.14	5.88	6.87	7.21	5.75	5.46	6.86	7.27	6.79	6.07	5.92	6.19	5.94	5.94	5.75	5.70	6.09	5.83	5.95	6.18	6.10	6.10	
4.76	4.48	4.50	4.90	5.05	5.15	5.20	5.09	5.10	5.33	5.44	5.65	5.69	5.30	5.17	5.33	5.39	5.42	5.54	5.52	5.54	5.60	5.27	5.12	5.23	5.08	5.01	4.72	4.34	4.56	4.95	5.21	5.52	5.82	5.49	5.04	4.95	4.83	5.10	5.32	5.10	5.12	5.36	5.36	5.29	5.49	5.71	5.93	6.02	5.55	4.92	4.69	4.92	5.21	5.04	4.97	5.22	5.29	5.23	5.28	5.35	5.53	6.02	7.02	7.27	6.21	5.85	6.75	6.93	7.00	8.02	8.06	6.49	5.28	6.54	8.87	9.09	7.43	6.66	7.02	6.75	6.46	6.46	6.11	5.84	5.94	5.88	5.42	6.12	7.52	6.89	5.31	5.40	6.66	7.09	7.52	6.41	4.90	5.62	6.58	6.26	5.73	5.61	5.95	6.53	6.83	6.51	6.10	6.51	7.33	7.14	6.32	6.27	6.59	6.59	6.00	5.72	6.13	6.19	6.60	6.67	6.46	7.07	6.86	5.99	5.77	5.78	5.78	
5.45	4.98	4.53	4.72	4.99	5.18	5.37	5.32	5.12	5.26	5.41	5.56	5.80	5.65	5.34	5.32	5.43	5.39	5.45	5.57	5.61	5.69	5.39	5.02	4.97	4.68	4.52	4.56	4.53	4.63	4.81	4.98	5.44	6.00	5.87	5.64	5.60	5.28	5.31	5.40	5.27	5.57	5.83	5.89	6.00	6.26	6.61	6.98	7.38	7.51	7.23	6.89	6.69	6.45	5.76	5.08	5.26	5.73	5.75	5.43	5.18	5.42	5.75	6.51	7.29	6.58	5.75	5.64	5.74	6.32	7.25	8.07	7.26	5.25	5.43	7.49	8.43	7.99	7.20	6.98	7.03	6.78	6.49	6.16	5.90	6.17	6.60	6.25	6.26	7.42	7.65	6.13	5.58	6.42	6.80	7.86	7.54	5.37	4.78	5.22	5.16	4.96	5.35	5.85	5.90	6.18	6.21	5.84	5.81	6.17	6.70	6.84	6.45	6.27	6.46	6.18	5.90	6.26	6.38	6.57	6.82	6.58	6.99	7.62	6.89	6.13	6.07	6.07	
5.77	5.26	4.69	4.62	4.74	4.92	5.20	5.36	5.18	5.13	5.17	5.20	5.34	5.37	5.27	5.28	5.45	5.48	5.40	5.41	5.57	5.83	5.89	5.86	5.84	5.47	4.96	4.55	4.58	4.83	4.89	4.80	5.34	6.36	6.79	7.12	7.26	7.08	6.96	6.90	6.77	6.92	7.01	6.96	7.04	7.00	6.94	6.90	6.83	6.97	6.70	6.34	6.30	6.24	5.65	4.98	5.01	5.63	6.01	5.53	4.65	4.60	5.01	5.72	6.73	6.76	6.37	5.53	5.20	5.60	5.70	6.84	7.65	6.21	5.26	6.22	7.14	7.25	7.05	6.70	6.78	6.85	6.57	6.19	5.73	5.80	6.58	6.84	6.38	6.93	7.79	7.01	6.03	5.98	6.02	7.07	8.03	7.29	6.55	6.23	5.45	4.79	5.02	5.79	5.73	5.67	5.91	5.70	5.57	5.59	5.80	6.26	6.30	6.11	6.37	6.67	6.58	6.45	6.33	6.31	6.16	5.70	5.97	7.17	7.64	7.11	6.75	6.75	
6.02	5.18	4.43	4.35	4.34	4.49	4.77	5.06	5.05	5.02	5.04	5.06	5.10	5.11	5.16	5.26	5.46	5.57	5.52	5.39	5.53	5.90	6.05	6.16	6.52	6.82	6.67	5.84	5.42	5.64	5.79	5.86	6.25	6.81	6.93	7.02	7.14	7.17	7.43	7.46	7.29	7.22	7.05	6.77	6.74	6.48	6.00	5.87	5.64	5.88	5.95	5.75	5.98	6.04	5.53	4.99	4.91	5.42	6.06	5.81	5.21	5.16	5.36	5.71	6.19	6.66	7.21	6.47	5.73	5.72	5.52	6.24	7.21	7.24	6.33	5.94	6.49	6.78	6.85	6.66	6.61	6.70	6.54	6.25	5.72	5.27	5.60	6.38	6.19	6.20	6.98	6.97	6.49	6.28	6.24	6.75	7.84	8.18	8.02	7.84	6.88	5.40	5.15	6.04	6.08	5.77	5.92	5.96	5.84	5.78	5.89	6.27	6.52	6.33	6.06	5.99	5.98	5.80	5.58	5.81	5.91	5.52	5.59	5.94	6.57	7.11	7.07	7.07	
6.52	5.97	5.18	4.81	4.59	4.53	4.74	4.95	4.99	5.05	5.11	5.11	5.02	4.99	5.04	5.08	5.20	5.34	5.43	5.41	5.35	5.49	5.62	5.65	6.02	6.72	7.40	7.57	7.38	7.24	7.15	6.89	6.42	6.11	5.77	5.82	6.16	6.03	6.17	6.21	5.85	6.23	6.33	5.85	5.81	5.79	5.45	5.37	5.34	5.69	5.94	5.80	6.26	6.55	5.97	5.14	4.65	5.04	5.91	5.94	5.75	5.94	6.17	6.29	6.11	6.25	7.24	7.31	6.73	6.27	5.88	6.47	6.75	7.11	7.18	6.60	6.52	6.61	6.75	6.63	6.55	6.58	6.50	6.31	5.94	5.45	5.30	5.82	6.03	6.16	6.55	6.74	6.85	6.76	6.62	6.47	6.76	7.20	7.31	7.45	7.33	6.20	5.48	5.99	6.14	5.93	5.87	5.92	5.87	5.74	5.67	5.82	6.07	6.04	5.86	5.75	5.75	5.62	5.35	5.48	5.70	5.48	5.57	5.54	5.66	6.58	6.96	6.96	
6.15	6.25	6.23	5.97	5.70	5.27	5.10	5.20	5.14	5.14	5.30	5.30	4.97	4.81	4.98	5.08	5.10	5.17	5.22	5.18	5.12	5.23	5.50	5.69	5.70	5.70	5.88	6.21	6.22	6.07	5.81	5.47	5.29	5.15	4.89	4.85	5.16	4.95	4.90	5.29	5.08	5.15	5.48	5.33	5.44	5.79	5.74	5.50	5.31	5.54	5.93	5.72	6.01	6.56	6.32	5.62	4.81	4.89	5.73	6.05	6.11	6.19	6.25	6.42	6.41	6.19	6.70	7.35	7.41	6.84	5.98	6.36	6.71	6.60	6.80	6.82	6.74	6.62	6.64	6.63	6.55	6.52	6.47	6.36	6.16	5.90	5.68	5.75	5.93	6.37	6.84	6.82	6.81	6.45	6.18	6.28	6.13	6.51	6.80	6.74	6.82	6.27	5.71	5.85	5.96	5.93	5.94	5.96	5.93	5.83	5.63	5.50	5.54	5.58	5.60	5.63	5.66	5.60	5.41	5.31	5.27	5.05	5.30	5.71	5.75	6.23	6.64	6.64	
5.48	5.53	5.72	5.79	5.79	5.57	5.23	5.23	5.21	5.16	5.42	5.67	5.27	4.79	4.88	5.08	5.16	5.16	5.23	5.27	5.29	5.45	5.50	5.50	5.39	5.24	5.08	4.93	4.79	4.84	4.85	4.89	5.13	5.27	5.26	5.05	4.87	4.64	4.48	4.90	5.20	5.03	5.21	5.32	5.34	5.80	6.14	5.96	5.54	5.42	5.71	5.62	5.69	6.30	6.47	6.25	5.58	5.08	5.51	5.89	6.12	6.51	6.32	6.02	6.40	6.35	6.19	6.86	7.44	7.37	6.53	6.24	6.75	6.68	6.46	6.55	6.73	6.76	6.72	6.69	6.64	6.60	6.55	6.47	6.33	6.17	6.04	5.89	5.66	5.72	6.30	6.51	6.66	6.45	6.04	6.26	6.12	6.29	6.66	6.64	6.57	6.25	5.98	5.94	5.94	5.92	5.94	5.97	5.95	5.86	5.76	5.62	5.49	5.42	5.42	5.40	5.39	5.37	5.30	5.23	5.21	5.03	4.92	5.26	5.55	5.88	6.17	6.17	
5.38	5.10	4.77	4.82	4.96	5.03	5.01	5.07	5.13	5.04	5.13	5.57	5.47	4.86	4.86	5.13	5.28	5.28	5.38	5.61	5.64	5.41	5.00	4.85	4.86	4.92	5.03	5.21	5.18	5.05	4.98	5.05	5.14	5.04	5.16	5.42	5.23	4.91	4.68	4.84	5.40	5.38	5.37	5.55	5.44	5.56	5.99	6.19	5.93	5.68	5.68	5.61	5.57	5.92	6.02	5.99	6.04	5.41	5.15	5.47	5.74	6.39	6.55	6.11	6.37	6.45	5.87	6.27	7.08	7.45	6.99	6.27	6.43	6.63	6.50	6.46	6.55	6.64	6.71	6.74	6.71	6.67	6.61	6.53	6.42	6.31	6.20	6.05	5.74	5.41	5.58	5.88	6.13	6.23	6.04	6.04	5.94	5.94	6.17	6.33	6.34	6.19	6.08	6.03	6.00	5.97	5.96	5.94	5.93	5.89	5.79	5.65	5.47	5.31	5.30	5.30	5.27	5.29	5.23	5.14	5.12	5.14	5.18	5.15	5.08	5.32	5.56	5.56	
5.63	5.25	4.69	4.58	4.74	4.79	4.79	4.94	5.01	5.01	5.01	5.28	5.42	4.99	4.90	5.11	5.32	5.40	5.32	5.24	5.28	5.32	4.87	4.54	4.71	4.82	4.72	4.78	5.04	5.16	5.00	4.83	4.83	4.72	4.71	5.26	5.57	5.34	5.02	4.86	5.23	5.29	5.03	5.23	5.44	5.47	5.65	6.01	6.14	5.96	5.97	6.02	5.86	5.86	5.82	5.67	5.93	5.75	5.20	5.29	5.76	6.11	6.10	6.18	6.58	6.76	6.04	5.86	6.64	7.21	7.02	6.49	6.28	6.35	6.42	6.52	6.62	6.63	6.68	6.75	6.75	6.74	6.70	6.64	6.54	6.42	6.31	6.20	6.02	5.74	5.61	5.67	5.74	5.79	5.80	5.86	5.91	5.89	5.94	6.05	6.10	6.09	6.03	5.98	5.95	5.89	5.86	5.81	5.78	5.84	5.93	6.04	5.96	5.75	5.71	5.60	5.49	5.54	5.47	5.31	5.22	5.24	5.75	6.15	5.61	5.09	5.04	5.04	
6.01	5.69	5.28	5.12	5.12	5.10	4.88	4.83	4.87	4.96	5.15	5.34	5.40	5.19	5.06	4.99	5.04	5.12	5.08	5.12	5.19	5.47	5.28	4.65	4.69	4.88	4.87	4.74	4.76	5.10	5.29	5.31	5.16	4.87	4.60	4.85	5.28	5.23	5.02	4.87	5.20	5.46	5.16	5.13	5.39	5.60	5.56	5.66	5.96	5.77	5.67	5.93	6.17	6.14	6.02	5.93	5.99	5.95	5.45	5.34	6.00	6.54	6.06	5.96	6.64	7.10	6.83	6.35	6.63	6.99	6.88	6.60	6.40	6.33	6.32	6.49	6.73	6.78	6.77	6.81	6.82	6.81	6.78	6.73	6.64	6.55	6.45	6.35	6.23	6.09	5.99	5.92	5.89	5.86	5.82	5.84	5.96	5.99	5.96	5.91	5.82	5.74	5.76	5.83	5.83	5.83	5.84	5.81	5.75	5.77	5.76	5.97	6.15	6.03	6.13	6.08	5.90	5.91	5.85	5.62	5.53	5.30	5.46	6.40	6.77	5.78	5.01	5.01	
6.04	5.79	5.44	5.23	5.00	4.80	4.72	4.68	4.63	4.65	4.95	5.36	5.28	5.02	5.26	5.28	4.95	4.91	4.89	5.06	5.17	5.36	5.56	4.96	4.62	4.77	4.95	5.04	4.92	4.94	5.07	5.27	5.31	5.01	4.60	4.60	4.93	5.01	4.95	4.87	5.22	5.63	5.43	5.30	5.35	5.55	5.62	5.71	6.05	6.01	5.81	5.86	6.21	6.21	5.90	5.79	6.03	6.15	5.63	5.40	5.90	6.80	6.61	5.98	6.44	6.89	6.97	6.86	6.88	6.99	6.82	6.59	6.45	6.39	6.31	6.42	6.67	6.85	6.91	6.92	6.92	6.89	6.87	6.84	6.75	6.66	6.56	6.48	6.38	6.28	6.16	6.03	5.99	5.99	5.96	5.94	5.97	6.06	6.10	5.92	5.78	5.52	5.49	5.82	5.97	6.03	5.86	5.86	5.96	5.97	5.65	5.39	5.51	5.31	5.28	5.56	5.56	5.70	5.88	5.52	5.21	4.92	4.75	5.37	6.48	6.49	5.91	5.91	
5.85	5.51	4.96	4.93	4.93	4.45	4.25	4.29	4.25	4.18	4.33	4.99	5.26	4.83	4.93	5.41	5.14	4.88	4.93	5.01	4.93	4.89	5.39	5.36	4.94	4.98	5.03	4.98	4.98	4.99	5.00	5.13	5.26	5.04	4.65	4.49	4.64	4.84	4.93	4.83	5.02	5.50	5.46	5.34	5.47	5.48	5.31	5.50	6.03	6.14	5.96	5.99	6.27	6.27	6.02	5.82	6.01	6.31	5.88	5.47	5.60	6.41	6.75	6.28	6.44	6.76	6.86	6.96	7.04	7.07	6.86	6.56	6.42	6.40	6.38	6.49	6.72	6.90	7.01	7.05	7.05	7.01	6.97	6.95	6.86	6.73	6.63	6.55	6.48	6.45	6.36	6.10	5.95	6.01	6.06	6.18	6.22	6.17	6.49	6.60	6.35	5.80	5.50	5.77	6.11	6.39	6.06	5.80	5.94	6.22	6.28	5.87	6.02	5.89	5.23	5.26	5.32	5.35	5.69	5.70	5.32	4.79	4.52	4.78	5.43	6.00	6.17	6.17	
6.08	5.97	5.30	5.05	5.31	4.91	4.52	4.32	4.16	3.95	3.81	4.20	4.75	4.68	4.44	4.98	5.16	4.65	4.72	5.14	5.19	4.88	5.16	5.45	5.20	5.10	5.08	4.85	4.67	4.85	5.07	5.28	5.55	5.33	4.83	4.60	4.53	4.59	4.73	4.86	4.95	5.21	5.38	5.32	5.63	5.75	5.27	5.13	5.57	5.91	5.84	6.02	6.45	6.47	6.19	5.98	6.11	6.41	6.15	5.73	5.69	6.17	6.59	6.53	6.63	6.89	7.06	7.17	7.25	7.22	7.04	6.65	6.38	6.38	6.48	6.69	6.95	7.13	7.22	7.22	7.17	7.08	7.04	7.06	6.98	6.83	6.73	6.63	6.49	6.54	6.71	6.50	5.99	5.86	5.88	5.99	6.40	6.32	6.31	6.92	6.85	5.95	5.59	5.85	6.21	6.57	6.29	5.76	5.68	6.12	6.55	6.40	6.69	7.19	6.84	6.30	6.00	5.98	5.97	5.99	5.90	5.35	4.72	4.56	4.96	5.35	5.50	5.50	
5.71	6.14	6.22	6.00	6.19	5.89	5.41	4.97	4.53	4.08	3.69	3.72	4.01	4.49	4.70	5.04	5.41	4.85	4.62	5.00	5.19	4.93	5.01	5.28	5.17	5.11	5.19	5.11	4.73	4.60	4.68	4.79	5.28	5.62	5.39	5.06	5.01	4.98	4.77	4.87	5.04	5.04	5.15	5.12	5.48	5.91	5.65	5.36	5.54	5.85	5.76	5.86	6.39	6.63	6.36	6.02	6.06	6.50	6.52	6.15	6.04	6.24	6.51	6.63	6.78	7.02	7.22	7.39	7.52	7.52	7.33	6.88	6.43	6.39	6.66	7.00	7.28	7.41	7.43	7.39	7.29	7.13	7.00	6.97	6.93	6.82	6.80	6.83	6.60	6.36	6.60	6.85	6.37	5.78	5.68	5.51	5.96	6.25	5.84	6.68	7.37	6.42	5.67	5.91	6.68	7.17	7.00	6.49	6.15	6.26	6.52	6.49	6.57	7.25	7.98	7.96	7.30	7.06	6.86	6.39	5.97	5.49	5.07	4.71	5.06	5.40	5.25	5.25	
5.17	5.55	6.20	6.80	7.32	7.27	6.63	5.73	4.90	4.46	4.03	3.76	3.59	3.86	4.56	5.19	5.75	5.47	5.05	5.17	5.33	4.99	4.85	5.13	5.12	5.10	5.25	5.46	5.36	5.00	4.81	4.62	4.66	5.12	5.30	5.02	4.81	4.93	4.79	4.75	5.05	5.07	4.99	4.91	5.15	5.66	5.64	5.36	5.40	5.79	5.86	5.82	6.21	6.57	6.61	6.32	6.09	6.35	6.54	6.37	6.32	6.45	6.62	6.71	6.84	7.10	7.33	7.56	7.82	7.98	7.83	7.31	6.70	6.60	7.07	7.50	7.73	7.78	7.59	7.40	7.26	7.19	7.07	6.92	6.90	6.85	6.92	7.00	6.88	6.46	6.21	6.58	6.62	5.86	5.52	5.16	5.35	6.11	5.70	6.14	7.47	7.34	6.17	5.75	6.38	7.34	7.86	7.77	7.42	7.38	7.30	7.17	7.12	6.97	7.40	8.11	8.05	7.88	7.77	7.52	6.82	5.75	5.31	4.94	5.02	5.29	5.18	5.18	
5.15	5.51	5.67	5.73	6.55	7.30	7.58	7.21	6.31	5.90	5.51	4.89	4.28	3.70	3.66	4.19	5.14	5.35	5.19	5.31	5.61	5.41	4.92	4.99	5.04	5.07	5.13	5.31	5.64	5.74	5.77	5.39	4.86	4.92	5.03	5.02	4.90	4.83	4.74	4.68	4.96	5.07	4.93	4.87	4.97	5.40	5.59	5.32	5.14	5.44	5.86	6.04	6.26	6.44	6.55	6.46	6.18	6.21	6.34	6.36	6.42	6.54	6.69	6.82	6.89	7.05	7.28	7.48	7.83	8.23	8.25	7.81	7.36	7.31	7.79	8.12	8.13	8.19	7.96	7.46	7.19	7.19	7.37	7.18	6.79	6.68	7.12	7.31	7.26	7.24	6.89	6.86	7.10	6.89	6.60	6.34	6.15	6.98	6.86	6.24	6.99	7.73	7.31	6.65	6.30	6.54	7.13	7.51	7.51	7.60	7.50	6.98	6.81	6.49	6.47	7.05	7.41	7.86	8.21	8.43	8.44	7.33	6.02	5.32	5.07	5.15	5.16	5.16	
4.48	5.04	5.17	4.57	4.73	5.47	6.53	7.39	7.49	7.30	6.92	6.53	6.03	4.98	4.09	3.92	4.51	4.89	4.84	4.77	5.03	5.25	4.99	4.92	4.91	4.96	5.02	4.89	5.02	5.24	5.67	5.94	5.54	5.36	5.25	5.08	5.06	4.93	4.69	4.58	4.86	5.16	5.02	4.91	4.97	5.28	5.60	5.59	5.37	5.20	5.40	5.83	6.26	6.39	6.35	6.31	6.16	6.13	6.22	6.29	6.41	6.59	6.75	6.93	7.00	6.98	7.22	7.44	7.70	8.17	8.20	7.81	8.98	8.10	8.55	8.85	8.44	8.47	8.62	8.10	7.36	6.52	6.67	7.20	6.64	6.17	6.96	7.83	8.09	8.24	8.44	8.37	8.12	8.07	8.10	7.98	7.59	7.61	7.83	7.38	7.16	7.40	7.36	7.12	6.68	6.23	6.17	6.34	6.30	6.41	6.73	6.46	6.05	5.77	5.83	6.16	6.25	6.61	7.22	7.65	8.38	8.55	7.38	6.29	5.83	5.58	5.47	5.47	
4.04	4.43	4.88	4.67	4.62	4.88	5.30	5.72	6.18	6.66	6.32	5.69	5.85	5.60	4.87	4.49	4.57	4.82	4.77	4.55	4.55	4.69	4.65	4.73	4.91	4.96	5.13	5.04	4.89	4.96	5.24	5.78	5.90	5.79	5.61	5.23	5.07	5.06	4.89	4.63	4.70	5.14	5.18	4.94	4.96	5.21	5.45	5.60	5.71	5.59	5.38	5.47	5.89	6.12	6.11	6.08	6.07	6.07	6.16	6.26	6.39	6.58	6.78	7.07	7.35	7.20	7.29	7.52	7.61	8.04	7.78	6.99	7.22	7.54	8.29	9.29	8.73	8.32	8.80	8.99	8.50	6.94	6.43	7.49	7.54	6.54	6.43	7.13	7.62	7.63	7.81	8.17	7.74	7.15	6.97	6.96	6.83	6.66	6.85	6.98	6.91	6.89	6.76	6.65	6.65	6.42	6.14	5.97	5.88	5.97	6.22	6.31	5.99	5.49	5.39	5.56	5.66	5.72	6.11	6.59	7.17	8.25	8.43	7.64	7.08	6.38	5.86	5.86	
4.19	4.51	5.03	5.29	5.53	5.80	5.63	4.89	4.79	5.73	5.92	4.99	4.97	5.38	5.08	4.66	4.59	4.88	5.13	5.16	5.17	5.11	4.84	4.60	4.79	5.03	5.26	5.40	5.26	5.14	5.13	5.27	5.44	5.72	5.82	5.45	5.19	5.15	5.08	4.84	4.50	4.69	5.10	4.96	4.84	5.10	5.27	5.30	5.44	5.59	5.53	5.47	5.72	5.98	5.96	5.88	5.90	5.94	6.04	6.18	6.35	6.57	6.76	7.00	7.52	7.43	7.29	7.61	7.70	7.99	7.62	6.56	6.57	6.88	6.96	8.67	9.14	8.20	8.26	9.04	9.53	8.90	7.93	7.58	7.73	7.05	6.07	5.93	6.15	6.18	6.36	7.06	7.25	6.75	6.43	6.43	6.33	6.24	6.23	6.19	6.22	6.31	6.36	6.30	6.24	6.10	5.99	5.80	5.75	5.97	6.12	6.28	6.25	5.91	5.63	5.44	5.48	5.49	5.64	6.04	6.22	6.90	7.70	7.56	7.22	6.99	6.70	6.70	
4.67	4.92	5.31	5.23	5.00	5.34	6.00	5.47	4.80	5.52	6.28	6.01	5.45	5.19	5.01	4.71	4.63	4.85	5.15	5.29	5.37	5.42	5.24	4.80	4.43	4.44	4.71	5.07	5.20	5.02	5.00	5.07	4.86	5.08	5.64	5.51	5.08	4.95	4.98	5.05	4.78	4.43	4.79	4.99	4.66	4.82	5.05	4.95	4.92	5.03	5.19	5.36	5.68	5.92	5.81	5.67	5.70	5.80	5.92	6.05	6.24	6.47	6.62	6.69	7.37	7.72	7.16	7.22	7.78	8.03	7.39	5.95	6.05	6.80	6.06	7.24	9.13	8.97	8.17	8.24	8.64	8.65	8.24	7.36	7.02	6.80	6.28	6.11	6.18	6.16	6.40	6.78	7.05	7.08	6.67	6.46	6.35	6.29	6.32	6.19	5.97	5.88	5.98	6.24	6.44	6.36	6.40	6.26	6.02	6.10	6.34	6.42	6.29	6.01	5.75	5.48	5.36	5.36	5.37	5.54	5.57	5.74	6.19	6.32	6.22	6.70	7.22	7.22	
4.58	4.79	5.14	4.91	4.47	4.54	5.34	5.62	5.04	5.13	5.69	5.87	5.87	5.57	5.25	4.88	4.64	4.75	4.94	5.00	4.90	4.93	5.08	5.08	4.81	4.50	4.39	4.60	5.02	5.13	5.16	5.35	5.10	4.84	5.33	5.76	5.49	5.04	4.91	5.05	5.16	4.73	4.53	4.89	4.73	4.53	4.69	4.73	4.70	4.75	4.87	5.11	5.61	6.23	5.60	5.43	5.55	5.66	5.72	5.92	6.27	6.64	6.91	6.72	7.26	8.52	8.34	8.12	9.75	9.76	8.27	6.20	5.73	6.68	6.22	6.06	7.67	8.98	8.65	8.05	7.81	7.93	8.11	7.72	7.34	6.98	6.69	6.67	6.73	6.61	6.61	6.70	6.66	6.82	6.78	6.62	6.52	6.45	6.64	6.81	6.67	6.49	6.36	6.56	7.09	7.39	7.44	7.38	7.16	6.82	6.87	7.00	6.78	6.36	6.05	5.75	5.34	5.26	5.33	5.40	5.43	5.50	5.67	5.91	5.84	6.24	6.98	6.98	
4.02	4.22	4.90	5.19	5.04	5.05	5.17	5.11	4.80	4.76	4.90	5.11	5.46	5.51	5.49	5.24	4.80	4.78	5.00	5.23	5.28	5.17	5.20	5.28	5.28	5.17	4.83	4.64	4.79	4.87	4.93	5.10	5.13	4.92	4.97	5.46	5.65	5.26	4.85	4.71	4.96	4.87	4.35	4.48	4.72	4.58	4.60	4.68	4.67	4.72	4.83	5.03	5.43	5.73	5.47	5.31	5.56	6.02	6.11	6.24	6.81	7.37	8.05	8.07	8.22	9.76	10.69	10.83	11.59	10.58	9.14	7.73	6.32	6.19	6.13	5.57	5.88	7.38	8.34	8.27	7.64	7.47	7.75	7.61	7.53	7.38	6.98	6.66	6.46	6.39	6.43	6.57	6.60	6.48	6.49	6.79	7.04	6.94	6.92	7.15	7.19	7.13	6.90	6.49	6.34	6.57	6.84	6.98	7.21	7.14	7.05	7.31	7.46	7.28	7.06	6.70	5.97	5.41	5.32	5.39	5.37	5.49	5.62	5.73	5.71	6.09	6.63	6.63	
4.11	4.00	4.27	4.83	5.11	5.40	5.72	5.28	4.67	4.84	4.82	4.87	5.22	5.14	5.13	5.29	5.06	4.87	5.06	5.34	5.58	5.49	5.18	5.03	4.89	4.87	4.79	4.65	4.68	4.62	4.77	4.92	4.82	4.75	4.76	5.03	5.39	5.33	5.00	4.61	4.73	5.00	4.61	4.41	4.61	4.67	4.69	4.72	4.71	4.74	4.86	5.06	5.32	5.48	5.40	5.26	5.36	6.01	6.52	6.55	7.10	7.83	8.83	9.65	9.64	9.86	10.23	10.14	9.60	8.46	7.62	7.23	6.26	5.46	5.48	5.56	5.72	6.53	7.47	7.83	7.32	6.84	7.02	7.09	6.93	6.92	6.80	6.56	6.34	6.27	6.33	6.39	6.56	6.51	6.09	6.04	6.50	6.61	6.54	6.62	6.60	6.56	6.50	6.23	5.86	5.71	5.84	5.97	6.15	6.48	6.54	6.72	7.03	7.06	7.18	7.26	7.05	6.27	5.60	5.47	5.32	5.33	5.64	5.89	5.89	6.05	6.28	6.28	
4.50	4.28	4.09	4.24	4.62	5.09	5.78	5.74	4.97	5.00	4.94	4.71	5.06	5.18	4.91	4.93	5.02	4.92	4.95	5.02	5.11	5.20	4.91	4.83	4.94	4.78	4.59	4.49	4.69	4.68	4.78	5.12	5.02	4.76	4.63	4.74	5.03	5.20	5.25	4.93	4.61	4.90	4.90	4.62	4.62	4.64	4.67	4.72	4.73	4.77	4.87	5.03	5.20	5.36	5.34	5.30	5.29	5.63	6.51	7.11	7.77	8.38	8.72	8.94	8.58	8.37	8.61	8.59	8.02	7.52	6.99	6.55	6.17	5.38	5.06	5.41	6.04	6.83	7.14	6.88	6.53	6.31	6.29	6.51	6.46	6.37	6.45	6.43	6.36	6.30	6.30	6.28	6.32	6.48	6.21	5.77	5.88	5.99	6.05	6.25	6.28	6.09	6.02	6.16	6.06	5.84	5.79	5.77	5.64	5.82	5.97	6.12	6.46	6.50	6.64	6.79	7.00	6.76	6.29	6.22	6.11	5.69	5.63	6.06	6.29	6.25	6.17	6.17	
4.76	4.64	4.42	4.20	4.20	4.66	5.67	6.11	5.35	4.95	4.92	4.61	4.56	4.85	4.91	4.87	4.89	4.86	4.78	4.68	4.62	4.94	4.94	4.80	5.17	5.24	5.04	4.74	4.72	4.75	4.67	4.92	4.98	4.82	4.62	4.49	4.65	4.92	5.10	5.14	4.74	4.59	4.79	4.71	4.64	4.65	4.63	4.67	4.70	4.73	4.79	4.86	4.92	5.11	5.25	5.24	5.43	5.86	6.46	7.07	7.59	7.84	7.88	7.89	7.57	7.58	8.02	8.12	7.64	7.25	7.07	6.50	6.05	5.60	5.12	5.12	5.85	7.78	7.77	6.20	5.75	5.77	5.87	6.09	6.27	6.24	6.28	6.31	6.25	6.21	6.29	6.32	6.26	6.29	6.22	5.96	5.80	5.73	5.73	5.89	6.05	5.98	5.85	5.99	6.07	5.91	5.80	5.76	5.66	5.77	5.83	5.85	6.18	6.27	6.33	6.64	6.89	6.86	6.75	6.70	6.78	6.43	5.83	5.88	6.23	6.51	6.64	6.64	
4.83	4.74	4.62	4.44	4.18	4.17	5.01	6.14	5.92	5.12	4.93	4.85	4.68	4.62	4.75	4.87	4.82	4.75	4.82	4.81	4.52	4.70	4.88	4.69	4.83	4.91	4.97	4.87	4.61	4.55	4.61	4.76	4.71	4.78	4.93	4.79	4.66	4.77	4.81	4.99	5.06	4.77	4.69	4.69	4.63	4.62	4.60	4.62	4.65	4.65	4.63	4.63	4.53	4.59	4.83	4.76	4.61	4.80	5.08	5.06	5.32	6.05	6.94	7.85	7.76	7.33	7.44	7.40	7.12	6.82	6.70	6.22	5.49	5.17	5.07	5.23	5.90	7.02	6.97	5.97	5.55	5.57	5.81	5.95	6.10	6.18	6.18	6.25	6.25	6.17	6.17	6.20	6.22	6.20	6.12	6.08	5.92	5.74	5.67	5.76	5.95	5.92	5.82	5.82	5.94	5.98	5.90	5.83	5.71	5.76	5.84	5.80	6.02	6.15	6.05	6.45	6.93	6.92	6.59	6.20	6.27	6.36	6.03	5.92	5.88	6.02	6.34	6.34	
4.89	4.84	4.75	4.64	4.39	4.09	4.36	5.55	6.41	6.09	5.53	5.34	5.34	5.10	4.82	4.82	4.82	4.74	4.93	5.25	5.02	4.80	4.75	4.60	4.68	4.65	4.68	4.91	4.71	4.39	4.56	4.93	4.84	4.71	4.88	4.87	4.66	4.68	4.72	4.71	4.84	4.82	4.70	4.64	4.60	4.58	4.56	4.56	4.56	4.54	4.46	4.32	4.02	3.88	4.23	4.47	4.25	4.03	4.23	4.43	4.74	5.53	6.40	7.40	7.64	6.95	6.73	6.77	6.65	6.44	6.24	5.68	5.05	4.90	5.14	5.72	6.39	6.92	6.83	6.28	5.88	5.74	5.90	6.06	6.13	6.22	6.20	6.22	6.25	6.24	6.19	6.07	6.12	6.19	6.04	6.05	6.03	5.86	5.78	5.84	6.00	5.98	5.94	5.82	5.76	5.83	5.86	5.80	5.63	5.62	5.66	5.70	5.93	6.13	5.92	5.77	5.96	6.25	6.27	5.95	5.83	5.98	6.08	6.09	6.05	5.96	5.90	5.90	
4.92	4.88	4.81	4.73	4.57	4.29	4.16	4.66	5.73	6.41	6.22	5.67	5.47	5.36	5.07	4.90	4.91	4.83	4.90	5.30	5.40	5.07	4.80	4.72	4.92	4.94	4.74	5.04	5.22	4.79	4.56	4.88	4.99	4.75	4.69	4.69	4.60	4.54	4.56	4.55	4.55	4.57	4.58	4.57	4.54	4.52	4.49	4.47	4.46	4.41	4.33	4.24	3.76	3.14	3.19	3.66	4.07	4.19	4.39	4.76	5.09	5.68	6.46	6.87	7.00	6.57	6.13	6.01	5.90	5.73	5.46	4.59	4.84	5.48	5.84	6.44	7.02	7.10	6.82	6.49	6.33	6.22	6.22	6.30	6.30	6.30	6.25	6.25	6.27	6.34	6.47	6.38	6.29	6.38	6.24	6.13	6.13	5.98	5.83	5.89	6.01	5.97	5.98	5.94	5.76	5.74	5.84	5.81	5.69	5.66	5.57	5.55	5.72	5.92	5.95	5.76	5.69	5.93	6.21	6.16	5.94	5.82	6.02	6.30	6.51	6.58	6.51	6.51	
4.95	4.92	4.86	4.79	4.69	4.49	4.17	4.08	4.48	5.28	5.88	5.63	5.25	5.11	5.02	4.94	4.98	5.01	4.98	5.20	5.44	5.27	4.86	4.76	5.00	5.05	4.68	4.66	4.94	4.88	4.52	4.47	4.70	4.77	4.76	4.65	4.58	4.48	4.43	4.44	4.46	4.44	4.42	4.43	4.42	4.41	4.38	4.36	4.33	4.26	4.03	3.97	3.83	3.02	2.58	2.82	3.34	3.92	4.39	4.76	5.09	5.84	7.75	7.27	6.31	6.07	5.72	5.51	5.27	5.04	5.09	5.29	5.84	6.40	6.72	6.97	7.27	7.14	6.55	6.17	6.35	6.41	6.32	6.29	6.34	6.35	6.26	6.20	6.28	6.40	6.54	6.52	6.41	6.44	6.39	6.25	6.26	6.19	5.93	5.82	5.94	5.94	5.95	6.06	5.92	5.83	5.98	5.98	5.84	5.82	5.66	5.49	5.45	5.54	5.83	5.90	5.86	5.99	6.23	6.39	6.26	5.88	5.78	6.07	6.19	6.37	6.62	6.62	
4.96	4.94	4.89	4.84	4.77	4.66	4.44	4.17	4.04	4.35	5.10	5.41	5.23	5.01	4.96	4.95	5.01	5.00	4.85	4.97	5.33	5.58	5.25	4.69	4.75	4.94	4.76	4.69	4.69	4.73	4.69	4.58	4.53	4.60	4.71	4.62	4.51	4.48	4.45	4.41	4.39	4.37	4.35	4.33	4.31	4.28	4.24	4.21	4.18	4.19	3.90	3.48	3.51	3.16	2.73	2.95	3.36	3.75	4.24	4.79	5.29	5.87	6.68	6.51	5.91	5.69	5.42	5.26	5.20	5.02	5.19	5.94	6.51	6.74	6.98	7.08	7.15	7.08	6.38	5.70	6.40	6.59	6.51	6.35	6.28	6.33	6.34	6.23	6.15	6.23	6.40	6.41	6.30	6.30	6.29	6.20	6.13	6.14	6.04	5.86	5.90	6.02	6.06	6.23	6.14	5.87	5.96	6.11	5.98	5.90	5.86	5.69	5.56	5.51	5.73	5.93	5.86	5.91	6.04	6.20	6.27	6.02	5.76	5.81	5.92	6.13	6.37	6.37	
4.98	4.96	4.93	4.88	4.83	4.75	4.65	4.49	4.29	4.24	4.58	5.03	5.15	5.00	4.86	4.80	4.84	4.82	4.64	4.62	4.77	5.16	5.33	4.98	4.81	4.81	4.70	4.79	4.84	4.73	4.69	4.71	4.59	4.46	4.49	4.51	4.47	4.45	4.45	4.43	4.40	4.35	4.31	4.27	4.23	4.17	4.09	4.04	4.02	4.08	4.00	3.47	2.92	2.56	2.44	2.87	3.48	3.91	4.30	4.81	5.36	5.82	6.10	5.94	5.60	5.42	5.29	5.16	5.27	5.43	5.55	6.05	6.59	6.67	6.80	7.03	7.03	6.86	6.41	6.13	6.37	6.49	6.54	6.51	6.40	6.39	6.41	6.29	6.10	6.03	6.16	6.30	6.31	6.28	6.28	6.23	6.09	6.01	5.96	5.78	5.71	5.88	6.01	6.18	6.22	5.99	5.92	6.12	6.13	5.96	6.03	6.07	6.05	5.93	5.89	6.06	5.99	5.93	5.98	6.05	6.08	5.94	5.81	5.83	5.96	6.16	6.29	6.29	
4.99	4.97	4.94	4.91	4.87	4.82	4.76	4.70	4.61	4.51	4.51	4.70	4.89	4.91	4.77	4.58	4.52	4.56	4.52	4.45	4.39	4.48	4.71	4.79	4.81	4.77	4.61	4.54	4.59	4.55	4.42	4.44	4.48	4.43	4.41	4.43	4.44	4.44	4.44	4.44	4.42	4.37	4.30	4.23	4.14	4.03	3.90	3.79	3.68	3.56	3.46	3.09	2.12	1.44	2.08	2.86	3.53	4.10	4.55	4.99	5.45	5.83	6.00	5.88	5.61	5.38	5.20	5.07	5.11	5.33	5.63	5.95	6.36	6.58	6.67	6.81	6.77	6.52	6.19	6.04	6.16	6.22	6.27	6.48	6.51	6.45	6.41	6.24	6.09	5.97	5.93	6.04	6.19	6.23	6.25	6.28	6.18	6.04	5.96	5.71	5.37	5.41	5.58	5.83	6.05	6.01	5.91	5.98	6.15	6.11	6.08	6.10	6.13	6.04	5.90	6.00	6.01	5.92	5.90	5.96	5.99	5.91	5.84	5.84	5.92	6.09	6.21	6.21	
5.00	4.98	4.96	4.93	4.90	4.87	4.83	4.79	4.76	4.73	4.71	4.71	4.76	4.79	4.73	4.58	4.47	4.47	4.49	4.48	4.44	4.41	4.38	4.38	4.51	4.59	4.52	4.46	4.46	4.43	4.36	4.34	4.39	4.42	4.41	4.40	4.38	4.37	4.37	4.38	4.38	4.36	4.29	4.19	4.06	3.91	3.70	3.43	3.14	2.85	2.65	2.32	1.48	1.32	2.26	3.16	3.71	4.19	4.66	5.10	5.48	5.78	5.90	5.82	5.62	5.41	5.23	5.12	5.18	5.30	5.54	5.85	6.14	6.35	6.46	6.54	6.48	6.26	6.06	6.01	6.18	6.23	6.09	6.12	6.16	6.17	6.24	6.15	6.05	5.98	5.91	5.86	5.91	5.98	6.02	6.12	6.22	6.17	6.18	6.03	5.46	5.23	5.29	5.37	5.51	5.59	5.68	5.81	5.95	6.02	6.00	5.97	6.00	5.96	5.84	5.85	5.90	5.89	5.87	5.90	5.94	5.95	5.90	5.89	5.93	6.05	6.14	6.14	
5.00	4.98	4.97	4.95	4.93	4.90	4.87	4.85	4.83	4.81	4.80	4.79	4.77	4.75	4.72	4.65	4.56	4.51	4.52	4.54	4.55	4.54	4.47	4.40	4.43	4.48	4.46	4.45	4.47	4.47	4.42	4.37	4.38	4.39	4.37	4.36	4.33	4.31	4.29	4.29	4.29	4.28	4.24	4.15	3.99	3.80	3.54	3.18	2.81	2.47	2.15	1.81	1.60	1.88	2.60	3.28	3.81	4.27	4.70	5.07	5.37	5.60	5.71	5.66	5.51	5.38	5.29	5.21	5.25	5.38	5.55	5.77	6.02	6.16	6.20	6.25	6.25	6.12	5.98	5.95	6.07	6.20	6.05	5.93	5.92	5.92	6.03	6.07	6.03	6.00	5.96	5.92	5.89	5.93	5.95	6.00	6.24	6.41	6.58	6.65	6.19	5.70	5.67	5.64	5.46	5.39	5.41	5.57	5.69	5.77	5.81	5.83	5.87	5.87	5.83	5.82	5.85	5.87	5.91	5.93	5.93	5.93	5.91	5.91	5.92	6.01	6.09	6.09	
5.00	4.99	4.98	4.96	4.94	4.92	4.90	4.88	4.86	4.85	4.84	4.82	4.79	4.76	4.73	4.69	4.63	4.55	4.51	4.51	4.54	4.57	4.55	4.48	4.46	4.49	4.47	4.44	4.44	4.43	4.40	4.37	4.34	4.32	4.29	4.28	4.27	4.26	4.23	4.21	4.19	4.18	4.17	4.10	3.94	3.69	3.41	3.08	2.70	2.30	1.95	1.68	1.65	1.97	2.56	3.21	3.77	4.22	4.60	4.92	5.16	5.32	5.43	5.46	5.39	5.32	5.28	5.27	5.33	5.46	5.64	5.82	5.99	6.07	6.05	6.03	6.02	5.94	5.81	5.74	5.76	5.89	5.97	5.91	5.86	5.84	5.91	5.99	6.01	5.99	5.97	5.98	5.99	6.03	6.05	6.00	6.09	6.31	6.65	7.00	6.97	6.51	6.30	6.38	6.11	5.62	5.39	5.39	5.48	5.58	5.64	5.71	5.76	5.79	5.81	5.83	5.83	5.83	5.85	5.86	5.88	5.89	5.88	5.91	5.91	5.95	6.02	6.02	
5.00	4.99	4.98	4.97	4.95	4.93	4.92	4.90	4.89	4.87	4.85	4.84	4.82	4.79	4.76	4.73	4.69	4.64	4.58	4.53	4.51	4.53	4.55	4.51	4.48	4.48	4.48	4.45	4.43	4.41	4.38	4.34	4.31	4.27	4.24	4.20	4.18	4.17	4.15	4.13	4.10	4.11	4.12	4.06	3.87	3.59	3.27	2.95	2.61	2.25	1.95	1.73	1.67	1.93	2.49	3.11	3.68	4.14	4.51	4.80	5.01	5.15	5.23	5.27	5.27	5.23	5.21	5.22	5.31	5.44	5.58	5.74	5.91	6.04	6.03	5.98	5.93	5.87	5.73	5.62	5.59	5.61	5.72	5.84	5.85	5.80	5.84	5.93	5.96	5.98	5.97	5.96	5.97	6.06	6.11	6.06	6.01	5.96	6.09	6.40	6.64	6.48	6.17	6.26	6.34	5.85	5.44	5.37	5.48	5.60	5.65	5.71	5.75	5.78	5.79	5.81	5.81	5.80	5.81	5.84	5.87	5.89	5.87	5.84	5.81	5.79	5.78	5.78	
5.00	4.99	4.98	4.97	4.96	4.94	4.93	4.91	4.90	4.88	4.87	4.85	4.83	4.80	4.78	4.75	4.71	4.68	4.64	4.59	4.56	4.54	4.54	4.53	4.50	4.48	4.47	4.45	4.43	4.40	4.36	4.34	4.31	4.26	4.21	4.14	4.09	4.05	4.01	3.99	3.99	4.03	4.07	4.03	3.81	3.46	3.10	2.79	2.51	2.20	1.86	1.49	1.52	2.03	2.61	3.18	3.68	4.10	4.45	4.73	4.91	5.02	5.06	5.06	5.05	5.05	5.12	5.24	5.35	5.46	5.59	5.70	5.78	5.85	5.87	5.83	5.79	5.71	5.56	5.47	5.57	5.66	5.71	5.94	6.10	6.03	5.91	5.86	5.82	5.81	5.84	5.86	5.82	5.85	5.96	5.95	5.89	5.78	5.74	5.92	6.15	6.13	5.96	6.03	6.28	6.12	5.73	5.45	5.55	5.70	5.69	5.71	5.72	5.73	5.75	5.79	5.80	5.79	5.77	5.78	5.78	5.78	5.85	5.91	5.86	5.68	5.55	5.55	
4.99	4.98	4.98	4.97	4.96	4.95	4.93	4.92	4.90	4.89	4.87	4.85	4.83	4.81	4.79	4.76	4.74	4.70	4.66	4.62	4.59	4.56	4.54	4.52	4.49	4.47	4.46	4.43	4.40	4.38	4.34	4.30	4.27	4.24	4.17	4.09	4.01	3.93	3.87	3.84	3.84	3.87	3.92	3.96	3.74	3.31	2.95	2.66	2.39	2.08	1.69	1.22	1.48	2.33	2.89	3.32	3.72	4.10	4.42	4.69	4.89	5.05	5.23	5.33	5.34	5.30	5.30	5.46	5.64	5.66	5.68	5.73	5.74	5.73	5.70	5.68	5.76	5.93	5.99	5.99	6.07	6.15	6.04	6.04	6.20	6.26	6.16	6.00	5.94	5.94	6.00	6.12	6.10	5.93	5.80	5.78	5.79	5.76	5.70	5.78	6.02	6.16	6.08	6.09	6.33	6.47	6.30	5.87	5.68	5.75	5.71	5.68	5.71	5.72	5.73	5.74	5.76	5.77	5.74	5.73	5.70	5.61	5.67	5.99	6.28	6.07	5.80	5.80	
4.99	4.98	4.98	4.97	4.96	4.95	4.93	4.92	4.91	4.89	4.87	4.86	4.84	4.82	4.79	4.77	4.74	4.71	4.68	4.64	4.61	4.59	4.56	4.53	4.49	4.46	4.45	4.42	4.39	4.35	4.31	4.25	4.19	4.16	4.11	4.03	3.95	3.87	3.81	3.76	3.71	3.67	3.72	4.04	3.93	3.29	2.91	2.63	2.34	1.99	1.65	1.61	2.06	2.69	3.17	3.51	3.80	4.12	4.43	4.75	5.09	5.35	5.65	5.96	6.11	6.05	5.79	5.59	5.64	5.68	5.68	5.74	5.80	5.82	5.89	6.00	6.19	6.57	6.82	6.83	6.74	6.67	6.47	6.17	6.12	6.35	6.65	6.75	6.64	6.57	6.50	6.46	6.49	6.43	6.12	5.87	5.83	5.82	5.78	5.76	5.89	6.17	6.35	6.26	6.24	6.43	6.44	6.17	5.90	5.83	5.79	5.69	5.67	5.68	5.68	5.67	5.67	5.72	5.74	5.78	5.85	5.65	5.40	5.60	6.07	6.23	6.19	6.19	
4.99	4.98	4.97	4.97	4.96	4.94	4.93	4.92	4.91	4.89	4.88	4.86	4.84	4.82	4.80	4.78	4.75	4.72	4.69	4.65	4.61	4.59	4.56	4.53	4.49	4.46	4.43	4.41	4.37	4.32	4.27	4.22	4.15	4.10	4.06	3.99	3.92	3.85	3.77	3.68	3.61	3.56	3.62	3.85	3.85	3.45	3.05	2.70	2.35	2.00	1.75	1.86	2.31	2.84	3.31	3.70	3.97	4.22	4.53	4.86	5.21	5.39	5.45	5.59	5.78	5.92	5.83	5.57	5.48	5.55	5.62	5.77	5.98	6.09	6.21	6.33	6.30	6.27	6.36	6.46	6.53	6.64	6.77	6.68	6.46	6.47	6.65	6.85	6.82	6.60	6.45	6.31	6.25	6.39	6.34	6.06	5.92	5.80	5.66	5.64	5.68	5.80	6.12	6.19	5.92	5.94	6.04	5.98	5.91	5.90	5.89	5.80	5.69	5.61	5.58	5.60	5.55	5.53	5.57	5.68	6.01	6.01	5.47	5.27	5.32	5.53	5.82	5.82	
4.98	4.98	4.97	4.96	4.95	4.94	4.93	4.92	4.91	4.89	4.87	4.86	4.84	4.82	4.80	4.78	4.75	4.72	4.70	4.66	4.63	4.61	4.58	4.53	4.49	4.46	4.43	4.39	4.36	4.31	4.27	4.22	4.15	4.09	4.04	3.98	3.91	3.84	3.76	3.67	3.61	3.61	3.69	3.84	3.85	3.61	3.23	2.83	2.46	2.14	1.99	2.12	2.48	2.90	3.32	3.75	4.10	4.32	4.47	4.62	4.82	4.95	4.93	4.94	5.06	5.24	5.39	5.43	5.45	5.53	5.60	5.74	5.99	6.13	6.09	5.96	5.79	5.65	5.64	5.71	5.82	5.94	6.19	6.46	6.34	6.08	5.93	5.95	6.07	6.07	6.04	6.05	5.99	5.99	6.06	6.02	5.98	5.92	5.62	5.43	5.49	5.49	5.60	5.79	5.80	5.76	5.78	5.75	5.73	5.81	5.90	5.95	5.92	5.84	5.70	5.67	5.65	5.49	5.40	5.37	5.69	6.02	5.60	5.41	5.49	5.35	5.35	5.35	
4.98	4.97	4.97	4.96	4.95	4.94	4.93	4.92	4.90	4.89	4.87	4.86	4.84	4.82	4.80	4.78	4.75	4.73	4.70	4.67	4.64	4.62	4.60	4.56	4.50	4.46	4.42	4.37	4.32	4.27	4.23	4.20	4.15	4.09	4.04	4.00	3.94	3.87	3.81	3.74	3.71	3.72	3.79	3.87	3.85	3.66	3.33	2.97	2.65	2.39	2.29	2.38	2.64	2.93	3.23	3.58	3.93	4.20	4.30	4.32	4.45	4.62	4.73	4.82	4.94	5.08	5.22	5.32	5.40	5.53	5.58	5.53	5.55	5.58	5.58	5.55	5.50	5.43	5.38	5.39	5.44	5.43	5.39	5.52	5.63	5.59	5.60	5.64	5.68	5.77	5.69	5.58	5.63	5.67	5.67	5.78	6.00	6.20	6.16	5.82	5.64	5.60	5.62	5.69	5.80	5.95	5.95	5.80	5.69	5.68	5.77	5.94	6.05	6.14	6.10	5.90	5.78	5.57	5.36	5.33	5.50	5.87	5.75	5.60	5.85	5.62	5.29	5.29	
4.98	4.97	4.96	4.96	4.95	4.94	4.93	4.92	4.90	4.89	4.87	4.85	4.84	4.82	4.80	4.78	4.75	4.73	4.70	4.67	4.64	4.61	4.59	4.56	4.51	4.48	4.44	4.41	4.37	4.30	4.24	4.21	4.18	4.14	4.08	4.02	3.97	3.91	3.86	3.82	3.80	3.82	3.85	3.87	3.82	3.65	3.40	3.12	2.86	2.66	2.59	2.67	2.83	3.01	3.21	3.47	3.74	4.04	4.24	4.34	4.45	4.60	4.73	4.85	4.98	5.11	5.22	5.29	5.31	5.36	5.44	5.39	5.33	5.32	5.34	5.41	5.46	5.42	5.36	5.32	5.33	5.38	5.34	5.26	5.27	5.31	5.42	5.54	5.49	5.59	5.71	5.64	5.70	5.92	5.95	5.90	6.08	6.20	6.27	6.20	5.98	5.76	5.79	5.86	5.79	5.97	6.19	6.09	5.89	5.82	5.78	5.76	5.75	5.85	6.13	6.16	6.00	5.74	5.38	5.34	5.55	5.83	5.86	5.56	5.61	5.50	5.18	5.18	
4.97	4.97	4.96	4.96	4.95	4.94	4.93	4.91	4.90	4.89	4.87	4.85	4.84	4.82	4.80	4.78	4.76	4.73	4.71	4.68	4.64	4.62	4.60	4.56	4.52	4.49	4.46	4.44	4.45	4.42	4.35	4.27	4.21	4.16	4.11	4.05	4.00	3.95	3.91	3.89	3.88	3.88	3.89	3.88	3.81	3.67	3.47	3.25	3.05	2.91	2.87	3.00	3.21	3.33	3.47	3.67	3.86	4.04	4.24	4.40	4.52	4.64	4.75	4.87	4.99	5.08	5.17	5.24	5.27	5.27	5.31	5.34	5.38	5.42	5.38	5.34	5.35	5.31	5.21	5.22	5.22	5.24	5.39	5.39	5.17	5.18	5.40	5.56	5.45	5.52	5.96	6.20	6.29	6.43	6.51	6.37	6.23	6.16	6.07	6.19	6.33	5.94	5.63	5.77	5.78	5.79	6.07	6.24	5.99	5.82	5.89	5.94	5.81	5.77	6.09	6.35	6.32	6.08	5.67	5.40	5.51	5.62	5.72	5.71	5.76	5.72	5.48	5.48	
4.97	4.96	4.96	4.95	4.94	4.93	4.92	4.91	4.90	4.88	4.87	4.85	4.83	4.82	4.80	4.78	4.76	4.73	4.71	4.68	4.65	4.63	4.62	4.59	4.54	4.50	4.46	4.42	4.39	4.38	4.34	4.29	4.24	4.19	4.14	4.09	4.04	4.00	3.97	3.95	3.95	3.95	3.94	3.90	3.83	3.71	3.55	3.39	3.24	3.13	3.09	3.20	3.46	3.63	3.71	3.85	4.02	4.13	4.26	4.42	4.54	4.67	4.77	4.88	4.99	5.09	5.16	5.23	5.29	5.34	5.42	5.43	5.48	5.56	5.57	5.46	5.41	5.35	5.11	5.01	5.05	5.12	5.36	5.74	5.58	5.27	5.39	5.84	6.02	5.92	6.06	6.03	5.99	6.05	6.17	6.32	6.39	6.39	6.18	6.14	6.53	6.49	5.95	5.76	5.79	5.69	5.70	6.02	6.01	5.77	5.83	6.04	5.90	5.80	6.20	6.53	6.53	6.22	5.83	5.43	5.53	5.71	5.77	6.00	6.14	6.03	5.83	5.83	
4.97	4.96	4.96	4.95	4.94	4.93	4.92	4.91	4.90	4.88	4.87	4.85	4.83	4.82	4.80	4.78	4.76	4.73	4.71	4.68	4.65	4.62	4.61	4.60	4.57	4.53	4.48	4.44	4.39	4.36	4.34	4.30	4.26	4.22	4.17	4.13	4.09	4.06	4.03	4.01	3.99	3.98	3.96	3.92	3.85	3.76	3.64	3.52	3.41	3.32	3.24	3.23	3.38	3.58	3.71	3.83	4.03	4.19	4.31	4.46	4.58	4.69	4.80	4.89	4.98	5.08	5.14	5.19	5.24	5.30	5.43	5.46	5.44	5.57	5.71	5.68	5.69	5.67	5.48	5.29	5.22	5.35	5.49	6.00	6.33	6.02	5.77	6.02	6.27	6.12	6.08	5.95	5.75	5.75	5.83	5.99	6.24	6.48	6.44	6.33	6.60	6.97	6.83	6.43	6.26	6.12	5.89	5.93	5.91	5.73	5.68	5.80	5.71	5.43	5.87	6.50	6.81	6.70	6.33	5.92	5.84	6.05	5.93	5.77	5.96	6.13	6.11	6.11	
4.97	4.96	4.95	4.95	4.94	4.93	4.92	4.91	4.89	4.88	4.87	4.85	4.83	4.82	4.80	4.78	4.76	4.74	4.71	4.69	4.66	4.62	4.60	4.59	4.57	4.54	4.50	4.46	4.43	4.39	4.36	4.33	4.29	4.25	4.20	4.16	4.13	4.09	4.06	4.04	4.02	4.01	3.99	3.95	3.88	3.81	3.72	3.63	3.55	3.48	3.43	3.40	3.46	3.60	3.76	3.91	4.07	4.23	4.36	4.50	4.64	4.74	4.82	4.90	4.96	5.05	5.12	5.15	5.17	5.16	5.22	5.31	5.36	5.60	5.93	6.05	6.31	6.36	6.17	6.11	6.03	5.96	5.86	5.93	6.28	6.46	6.16	5.88	5.86	5.79	5.91	6.06	5.93	5.79	5.79	5.87	5.97	6.16	6.29	6.24	6.24	6.47	6.69	6.61	6.57	6.62	6.54	6.50	6.24	5.87	5.83	5.80	5.59	5.01	4.91	5.53	6.20	6.72	6.84	6.81	6.69	6.59	6.34	5.83	5.74	6.12	6.34	6.34	
4.97	4.96	4.95	4.95	4.94	4.93	4.92	4.91	4.89	4.88	4.87	4.85	4.83	4.82	4.80	4.78	4.76	4.74	4.71	4.69	4.66	4.63	4.60	4.58	4.57	4.54	4.50	4.47	4.44	4.40	4.36	4.33	4.30	4.27	4.23	4.19	4.16	4.13	4.10	4.08	4.05	4.04	4.02	3.98	3.93	3.86	3.80	3.73	3.68	3.63	3.61	3.63	3.68	3.77	3.89	4.01	4.14	4.27	4.38	4.49	4.63	4.76	4.85	4.93	4.96	5.01	5.08	5.13	5.15	5.17	5.21	5.27	5.18	5.29	5.77	6.02	6.32	6.68	6.57	6.17	5.97	5.82	5.62	5.51	5.49	5.63	5.57	5.42	5.45	5.50	5.53	5.71	5.81	5.75	5.66	5.65	5.73	5.78	5.84	5.87	5.87	5.97	6.10	6.07	5.98	6.11	6.35	6.63	6.79	6.70	6.65	6.51	6.10	5.47	5.12	5.31	5.77	6.17	6.18	6.04	6.16	6.39	6.51	6.12	5.63	5.95	6.38	6.38	
4.96	4.96	4.95	4.95	4.94	4.93	4.92	4.91	4.89	4.88	4.87	4.85	4.83	4.82	4.80	4.78	4.76	4.74	4.72	4.69	4.67	4.64	4.61	4.58	4.58	4.56	4.51	4.48	4.45	4.42	4.38	4.34	4.32	4.29	4.26	4.22	4.19	4.16	4.14	4.12	4.10	4.07	4.05	4.02	3.98	3.93	3.88	3.83	3.80	3.77	3.76	3.78	3.83	3.91	4.00	4.10	4.20	4.31	4.41	4.50	4.59	4.71	4.81	4.90	4.97	5.02	5.08	5.14	5.17	5.20	5.20	5.29	5.20	4.88	4.92	5.12	5.28	5.72	6.05	5.68	5.38	5.29	5.16	4.99	5.11	5.62	5.92	5.80	5.54	5.53	5.49	5.49	5.61	5.66	5.64	5.59	5.62	5.69	5.70	5.74	5.77	5.80	5.81	5.78	5.57	5.42	5.58	5.75	5.87	5.99	6.21	6.52	6.70	6.62	6.41	6.18	6.15	6.34	6.22	5.73	5.54	5.72	6.03	6.11	5.64	5.76	6.23	6.23	
4.96	4.96	4.95	4.95	4.94	4.93	4.92	4.91	4.89	4.88	4.87	4.85	4.84	4.82	4.80	4.78	4.76	4.74	4.72	4.70	4.68	4.65	4.62	4.59	4.58	4.57	4.52	4.49	4.46	4.43	4.40	4.37	4.33	4.31	4.29	4.26	4.23	4.20	4.18	4.16	4.14	4.11	4.09	4.06	4.04	4.00	3.96	3.92	3.90	3.89	3.89	3.92	3.96	4.02	4.10	4.18	4.27	4.36	4.46	4.55	4.62	4.71	4.80	4.89	4.98	5.04	5.07	5.15	5.19	5.25	5.22	5.20	5.24	5.03	4.78	4.69	4.66	5.05	5.65	5.49	5.28	5.41	5.55	5.36	5.11	5.35	5.91	6.22	6.07	5.94	5.82	5.66	5.59	5.60	5.62	5.63	5.66	5.67	5.68	5.70	5.76	5.77	5.77	6.03	6.11	5.84	5.77	5.89	5.86	5.82	5.96	6.21	6.46	6.51	6.36	6.11	5.85	6.08	6.47	6.33	5.99	5.77	5.82	6.21	6.07	5.93	6.20	6.20	
4.96	4.96	4.95	4.95	4.94	4.93	4.92	4.91	4.89	4.88	4.87	4.85	4.84	4.82	4.80	4.79	4.77	4.75	4.73	4.71	4.68	4.66	4.63	4.59	4.58	4.58	4.54	4.50	4.49	4.46	4.43	4.40	4.37	4.34	4.32	4.30	4.28	4.25	4.22	4.19	4.17	4.15	4.13	4.10	4.08	4.06	4.04	4.01	3.99	3.99	4.00	4.03	4.06	4.11	4.18	4.25	4.33	4.41	4.50	4.59	4.67	4.75	4.83	4.89	4.95	5.02	5.09	5.18	5.22	5.28	5.27	5.02	4.87	4.93	5.05	5.00	4.79	5.06	5.85	5.93	5.51	5.50	5.65	5.71	5.37	4.93	5.13	5.65	5.93	6.02	5.96	5.86	5.77	5.74	5.66	5.63	5.69	5.75	5.76	5.72	5.86	5.92	5.84	6.10	6.43	6.48	6.40	6.56	6.82	6.97	7.08	7.05	6.86	6.52	6.09	5.74	5.65	5.68	5.82	5.95	5.93	5.60	5.34	5.77	6.06	5.96	6.03	6.03	
4.96	4.95	4.95	4.95	4.94	4.93	4.92	4.91	4.90	4.88	4.87	4.85	4.84	4.82	4.81	4.79	4.77	4.75	4.73	4.71	4.69	4.67	4.64	4.61	4.59	4.60	4.57	4.52	4.50	4.48	4.46	4.43	4.40	4.38	4.35	4.33	4.31	4.29	4.26	4.24	4.22	4.20	4.17	4.15	4.13	4.11	4.10	4.09	4.08	4.08	4.09	4.12	4.16	4.21	4.26	4.32	4.39	4.47	4.54	4.62	4.70	4.77	4.84	4.91	4.96	5.00	4.99	5.06	5.19	5.37	5.56	5.28	4.51	4.01	4.34	4.99	5.12	5.12	5.80	6.40	6.18	5.90	5.77	5.76	5.78	5.47	5.26	5.38	5.57	5.78	5.90	5.83	5.73	5.72	5.70	5.66	5.67	5.78	5.91	5.96	6.13	6.11	5.73	5.64	5.84	6.03	6.00	5.91	5.85	5.85	6.09	6.38	6.76	7.01	6.75	5.98	5.71	5.90	5.81	5.64	5.99	5.78	4.97	5.14	5.78	5.82	5.63	5.63	
4.96	4.96	4.95	4.95	4.94	4.93	4.92	4.91	4.90	4.88	4.87	4.86	4.84	4.83	4.81	4.79	4.78	4.76	4.74	4.72	4.70	4.68	4.65	4.62	4.60	4.60	4.59	4.54	4.51	4.50	4.48	4.45	4.42	4.40	4.37	4.35	4.33	4.31	4.30	4.28	4.26	4.24	4.22	4.21	4.20	4.18	4.16	4.16	4.16	4.16	4.17	4.20	4.23	4.28	4.33	4.38	4.43	4.50	4.58	4.64	4.71	4.78	4.86	4.92	4.99	5.10	5.06	4.96	5.03	5.31	6.14	6.63	5.76	4.53	4.27	4.84	5.11	4.90	5.16	5.77	6.02	5.99	5.88	5.79	5.78	5.69	5.49	5.42	5.47	5.57	5.77	5.80	5.66	5.63	5.67	5.67	5.65	5.68	5.78	5.89	6.17	6.28	5.85	5.48	5.54	5.58	5.36	5.23	5.11	5.01	5.04	5.17	5.55	6.21	6.89	6.60	5.86	5.96	6.21	5.78	5.99	6.36	5.65	5.27	5.88	6.11	5.88	5.88	
4.96	4.96	4.95	4.95	4.94	4.93	4.92	4.91	4.90	4.89	4.87	4.86	4.85	4.83	4.82	4.80	4.78	4.76	4.75	4.73	4.71	4.69	4.66	4.64	4.60	4.60	4.60	4.56	4.52	4.51	4.49	4.46	4.44	4.41	4.39	4.38	4.36	4.34	4.33	4.31	4.30	4.28	4.26	4.25	4.24	4.23	4.23	4.22	4.23	4.23	4.25	4.27	4.30	4.34	4.38	4.43	4.48	4.54	4.62	4.68	4.74	4.80	4.86	4.92	4.97	5.13	5.28	5.03	4.84	4.74	5.35	6.71	7.26	7.01	6.25	5.82	5.63	5.16	5.03	5.27	5.46	5.56	5.61	5.61	5.59	5.54	5.43	5.32	5.28	5.30	5.49	5.75	5.75	5.65	5.62	5.63	5.67	5.70	5.65	5.55	5.76	6.15	5.99	5.60	5.59	5.73	5.49	5.11	5.01	5.14	5.14	4.95	5.00	5.20	5.80	6.31	5.95	5.84	6.13	5.80	5.64	6.17	5.95	5.50	5.87	6.22	6.20	6.20	
4.96	4.96	4.95	4.95	4.94	4.93	4.92	4.91	4.90	4.89	4.88	4.86	4.85	4.83	4.82	4.80	4.79	4.77	4.75	4.74	4.72	4.70	4.67	4.65	4.62	4.61	4.63	4.60	4.55	4.53	4.52	4.49	4.47	4.45	4.42	4.41	4.40	4.38	4.37	4.36	4.34	4.33	4.31	4.29	4.29	4.28	4.28	4.28	4.29	4.29	4.31	4.33	4.35	4.40	4.45	4.49	4.53	4.58	4.65	4.71	4.77	4.84	4.87	4.88	4.90	4.91	5.17	5.15	4.77	4.29	4.06	4.62	5.65	6.54	6.64	6.32	5.99	5.54	5.30	5.30	5.36	5.39	5.41	5.42	5.43	5.38	5.34	5.31	5.26	5.21	5.23	5.42	5.55	5.52	5.50	5.50	5.53	5.62	5.74	5.72	5.76	6.01	5.90	5.68	5.67	5.85	6.06	5.59	5.01	5.14	5.38	5.15	4.99	5.12	5.39	5.81	5.82	5.85	6.08	5.76	5.55	5.92	5.80	5.44	5.66	6.07	6.23	6.23	
4.97	4.96	4.96	4.95	4.94	4.93	4.93	4.92	4.90	4.89	4.88	4.87	4.85	4.84	4.83	4.81	4.79	4.78	4.76	4.74	4.72	4.71	4.69	4.67	4.64	4.61	4.62	4.62	4.57	4.55	4.54	4.53	4.51	4.49	4.46	4.44	4.43	4.41	4.40	4.39	4.38	4.36	4.35	4.34	4.34	4.33	4.33	4.33	4.34	4.35	4.37	4.39	4.41	4.45	4.50	4.54	4.57	4.61	4.67	4.73	4.80	4.93	5.06	5.04	5.02	5.00	5.14	5.33	5.06	4.47	4.19	4.31	4.60	5.06	5.45	5.73	5.76	5.51	5.43	5.43	5.42	5.42	5.41	5.36	5.39	5.38	5.29	5.27	5.25	5.17	5.10	5.16	5.32	5.36	5.31	5.33	5.31	5.28	5.42	5.65	5.94	6.24	6.05	5.74	5.71	5.71	6.12	6.18	5.43	5.20	5.48	5.39	5.06	5.17	5.51	5.77	5.75	5.86	6.45	6.21	5.61	5.88	5.62	5.06	5.31	5.88	6.14	6.14	
4.97	4.96	4.96	4.95	4.94	4.94	4.93	4.92	4.91	4.90	4.88	4.87	4.86	4.84	4.83	4.82	4.80	4.79	4.77	4.75	4.74	4.72	4.70	4.68	4.65	4.62	4.61	4.62	4.60	4.57	4.55	4.54	4.52	4.51	4.49	4.47	4.46	4.44	4.43	4.42	4.42	4.41	4.40	4.39	4.39	4.39	4.38	4.39	4.41	4.42	4.43	4.45	4.47	4.49	4.53	4.58	4.62	4.65	4.70	4.75	4.81	4.89	5.07	5.24	5.26	5.18	5.20	5.57	5.85	5.47	4.92	4.83	4.85	4.83	4.96	5.29	5.60	5.53	5.44	5.46	5.45	5.48	5.50	5.40	5.33	5.28	5.20	5.16	5.12	5.13	5.18	5.17	5.22	5.31	5.27	5.26	5.22	5.07	5.01	5.16	5.62	6.19	6.33	5.93	5.69	5.69	5.92	6.15	5.67	5.36	5.55	5.54	5.16	5.06	5.39	5.78	5.78	5.58	6.21	6.58	5.91	6.11	6.01	5.02	5.08	5.74	5.99	5.99	
4.97	4.96	4.96	4.95	4.95	4.94	4.93	4.92	4.91	4.90	4.89	4.88	4.86	4.85	4.84	4.82	4.81	4.79	4.78	4.76	4.75	4.73	4.71	4.69	4.67	4.64	4.63	4.63	4.62	4.60	4.57	4.56	4.54	4.53	4.52	4.50	4.49	4.48	4.47	4.46	4.46	4.45	4.45	4.44	4.44	4.44	4.44	4.44	4.46	4.48	4.49	4.50	4.52	4.55	4.58	4.62	4.66	4.70	4.74	4.71	4.72	4.81	4.93	5.20	5.56	5.61	5.56	5.83	6.22	6.29	5.81	5.25	5.07	5.05	4.98	5.02	5.23	5.42	5.55	5.56	5.58	5.65	5.65	5.53	5.44	5.35	5.29	5.32	5.21	5.12	5.26	5.36	5.28	5.22	5.21	5.29	5.39	5.22	4.98	4.87	5.04	5.51	6.03	6.13	5.74	5.72	6.03	6.15	5.83	5.68	5.88	5.94	5.66	5.27	5.26	5.60	5.69	5.36	5.66	6.42	6.13	6.19	6.65	5.74	5.18	5.68	5.98	5.98	
4.97	4.96	4.96	4.96	4.95	4.94	4.93	4.93	4.92	4.90	4.89	4.88	4.87	4.86	4.84	4.83	4.82	4.80	4.79	4.77	4.76	4.74	4.72	4.71	4.69	4.66	4.64	4.63	4.63	4.62	4.59	4.57	4.57	4.56	4.54	4.53	4.52	4.51	4.50	4.49	4.49	4.49	4.49	4.48	4.48	4.49	4.48	4.49	4.50	4.52	4.54	4.55	4.57	4.59	4.62	4.65	4.67	4.72	4.84	4.86	4.74	4.82	4.96	5.08	5.46	5.69	5.37	5.12	5.21	5.60	6.00	5.93	5.68	5.65	5.56	5.40	5.31	5.32	5.62	5.73	5.64	5.74	5.92	5.94	6.00	6.12	6.09	6.21	6.19	5.74	5.56	5.75	5.81	5.62	5.37	5.35	5.59	5.53	5.21	4.97	4.94	5.10	5.48	6.03	5.92	5.73	6.09	6.30	6.00	5.97	6.10	5.99	5.83	5.46	5.26	5.46	5.65	5.39	5.41	6.06	6.00	5.79	6.44	6.29	5.55	5.66	5.95	5.95	
4.97	4.97	4.96	4.96	4.95	4.95	4.94	4.93	4.92	4.91	4.90	4.89	4.87	4.86	4.85	4.84	4.82	4.81	4.80	4.78	4.77	4.75	4.74	4.72	4.70	4.68	4.66	4.64	4.64	4.65	4.63	4.60	4.60	4.60	4.57	4.55	4.55	4.55	4.53	4.53	4.53	4.52	4.52	4.51	4.52	4.53	4.53	4.52	4.53	4.55	4.58	4.60	4.61	4.63	4.66	4.68	4.71	4.71	4.83	5.02	4.92	4.77	4.82	4.80	4.83	5.02	4.90	4.68	4.61	4.64	5.09	5.69	5.78	5.79	5.89	5.84	5.70	5.39	5.37	5.52	5.45	5.42	5.66	5.86	6.02	6.30	6.39	6.45	6.67	6.54	6.05	5.89	6.12	6.30	6.05	5.63	5.65	5.77	5.63	5.35	5.22	5.19	5.25	5.67	5.89	5.76	5.94	6.16	5.86	5.85	6.16	6.07	5.79	5.51	5.43	5.56	5.76	5.59	5.39	5.79	5.97	5.70	5.88	5.94	5.58	5.69	5.95	5.95	
4.98	4.97	4.97	4.96	4.96	4.95	4.94	4.93	4.92	4.91	4.90	4.89	4.88	4.87	4.86	4.84	4.83	4.82	4.81	4.79	4.78	4.76	4.75	4.73	4.72	4.70	4.69	4.67	4.65	4.66	4.66	4.63	4.61	4.61	4.60	4.58	4.57	4.57	4.56	4.55	4.55	4.55	4.55	4.54	4.54	4.55	4.56	4.56	4.57	4.58	4.60	4.62	4.64	4.66	4.68	4.71	4.74	4.72	4.68	4.81	4.81	4.60	4.44	4.49	4.77	5.03	5.13	5.13	5.19	5.03	4.86	5.21	5.50	5.47	5.48	5.49	5.50	5.41	5.31	5.38	5.38	5.30	5.27	5.20	5.22	5.32	5.37	5.41	5.68	6.13	6.15	5.81	5.80	6.01	6.13	5.97	5.77	5.78	5.74	5.59	5.44	5.32	5.25	5.34	5.54	5.59	5.74	5.89	5.60	5.41	5.71	6.04	6.02	5.67	5.48	5.59	5.77	5.73	5.47	5.51	5.83	5.89	5.89	5.72	5.27	5.47	5.86	5.86	
4.98	4.97	4.97	4.97	4.96	4.95	4.95	4.94	4.93	4.92	4.91	4.90	4.89	4.88	4.86	4.85	4.84	4.83	4.81	4.80	4.79	4.78	4.76	4.75	4.73	4.72	4.70	4.69	4.66	4.65	4.66	4.65	4.65	4.64	4.62	4.61	4.60	4.59	4.59	4.58	4.57	4.58	4.58	4.58	4.58	4.58	4.60	4.61	4.61	4.62	4.64	4.66	4.68	4.69	4.72	4.74	4.75	4.74	4.71	4.76	4.85	4.77	4.55	4.48	4.73	5.01	5.14	5.19	5.40	5.48	5.24	5.27	5.57	5.74	5.74	5.64	5.50	5.48	5.51	5.48	5.35	5.41	5.41	5.10	4.88	4.87	4.90	4.99	5.14	5.50	5.92	5.81	5.71	5.69	5.65	5.77	5.72	5.74	5.62	5.48	5.48	5.39	5.32	5.33	5.38	5.39	5.51	5.63	5.52	5.40	5.41	5.56	5.75	5.65	5.44	5.49	5.65	5.71	5.64	5.49	5.64	5.97	6.24	6.31	5.66	5.35	5.56	5.56	
4.98	4.98	4.97	4.97	4.96	4.96	4.95	4.94	4.93	4.92	4.91	4.90	4.89	4.88	4.87	4.86	4.85	4.84	4.82	4.81	4.80	4.79	4.77	4.76	4.75	4.74	4.72	4.71	4.69	4.67	4.66	4.66	4.66	4.68	4.67	4.64	4.62	4.61	4.61	4.61	4.61	4.61	4.61	4.61	4.62	4.62	4.63	4.64	4.65	4.67	4.68	4.70	4.72	4.73	4.74	4.75	4.75	4.76	4.80	4.88	5.06	5.18	5.11	4.96	4.82	4.80	4.91	4.95	5.06	5.14	4.95	4.94	5.28	5.63	5.90	6.07	5.95	5.69	5.64	5.72	5.48	5.31	5.27	4.97	4.75	4.72	4.79	4.87	4.87	4.94	5.27	5.42	5.58	5.80	5.68	5.54	5.42	5.58	5.62	5.39	5.36	5.38	5.36	5.37	5.42	5.45	5.49	5.51	5.42	5.37	5.37	5.36	5.44	5.49	5.39	5.37	5.50	5.60	5.69	5.66	5.67	5.81	5.99	6.42	6.34	5.83	5.67	5.67	
4.99	4.98	4.98	4.97	4.97	4.96	4.95	4.95	4.94	4.93	4.92	4.91	4.90	4.89	4.88	4.87	4.86	4.85	4.83	4.82	4.81	4.80	4.79	4.78	4.76	4.75	4.74	4.73	4.71	4.70	4.68	4.66	4.65	4.66	4.68	4.68	4.66	4.65	4.64	4.64	4.63	4.64	4.64	4.64	4.64	4.65	4.66	4.67	4.68	4.70	4.71	4.73	4.75	4.76	4.78	4.79	4.80	4.79	4.80	4.78	4.79	4.85	4.83	4.89	4.92	4.76	4.73	4.89	5.12	5.21	4.99	4.79	4.96	5.13	5.18	5.49	5.69	5.54	5.21	5.25	5.27	5.12	5.00	4.59	4.38	4.37	4.36	4.51	4.60	4.57	4.78	5.03	5.23	5.50	5.70	5.65	5.28	5.16	5.33	5.29	5.20	5.27	5.31	5.34	5.41	5.47	5.49	5.45	5.38	5.24	5.09	5.03	5.02	5.15	5.34	5.34	5.27	5.29	5.46	5.61	5.63	5.63	5.52	5.80	6.17	6.11	6.04	6.04	
4.99	4.98	4.98	4.98	4.97	4.97	4.96	4.95	4.94	4.94	4.93	4.92	4.91	4.90	4.89	4.88	4.87	4.85	4.84	4.83	4.82	4.81	4.80	4.79	4.78	4.77	4.75	4.74	4.73	4.72	4.71	4.69	4.68	4.66	4.66	4.68	4.70	4.69	4.68	4.66	4.65	4.66	4.67	4.67	4.67	4.68	4.69	4.69	4.71	4.73	4.75	4.76	4.79	4.81	4.83	4.85	4.80	4.74	4.68	4.60	4.51	4.45	4.34	4.47	4.85	4.89	4.67	4.79	5.25	5.53	5.44	5.10	4.97	5.01	4.84	4.75	5.09	5.48	4.99	4.61	4.77	5.00	5.26	4.83	4.40	4.45	4.37	4.47	4.83	4.86	4.86	4.96	5.05	5.17	5.41	5.70	5.59	5.33	5.41	5.39	5.24	5.18	5.19	5.32	5.50	5.73	5.91	5.89	5.86	5.88	5.63	5.36	5.13	4.91	5.23	5.59	5.46	5.20	5.11	5.22	5.41	5.59	5.43	5.40	5.63	5.89	6.12	6.12	
4.99	4.99	4.99	4.98	4.98	4.97	4.96	4.96	4.95	4.94	4.93	4.92	4.91	4.90	4.89	4.88	4.87	4.86	4.85	4.84	4.83	4.82	4.81	4.80	4.79	4.78	4.77	4.76	4.75	4.74	4.73	4.72	4.71	4.70	4.69	4.68	4.68	4.69	4.70	4.70	4.69	4.68	4.69	4.70	4.70	4.71	4.72	4.73	4.73	4.74	4.77	4.80	4.83	4.85	4.89	4.98	4.91	4.68	4.62	4.59	4.59	4.69	4.57	4.47	4.79	5.18	5.03	4.70	4.77	5.01	5.21	5.22	5.14	5.26	5.43	5.26	5.64	6.40	5.89	5.24	5.02	5.21	6.00	6.15	5.61	5.60	5.52	5.13	5.15	5.25	5.19	5.17	5.19	5.22	5.38	5.80	5.91	5.65	5.60	5.53	5.40	5.28	5.12	5.16	5.31	5.49	5.89	6.34	6.52	6.66	6.73	6.52	6.19	5.51	5.34	5.94	6.25	5.98	5.44	5.01	5.08	5.49	5.54	5.47	5.53	5.77	6.06	6.06	
5.00	4.99	4.99	4.99	4.98	4.98	4.97	4.96	4.95	4.95	4.94	4.93	4.92	4.91	4.90	4.89	4.88	4.87	4.86	4.85	4.84	4.83	4.82	4.82	4.81	4.80	4.79	4.78	4.77	4.76	4.75	4.74	4.73	4.73	4.72	4.71	4.70	4.70	4.71	4.73	4.73	4.72	4.71	4.72	4.73	4.73	4.74	4.76	4.77	4.77	4.78	4.82	4.85	4.88	4.90	5.11	5.36	5.06	4.77	4.73	4.66	4.89	4.89	4.42	4.28	4.69	4.97	4.89	4.84	4.86	4.92	5.05	5.25	5.65	6.17	6.24	6.46	7.30	7.14	6.37	6.13	5.91	6.19	6.75	6.76	6.41	6.20	5.75	5.14	4.97	5.05	5.10	5.31	5.40	5.34	5.57	5.73	5.48	5.26	5.25	5.37	5.49	5.31	5.04	4.96	4.85	4.74	5.29	5.97	6.16	6.37	6.50	6.53	6.15	5.49	5.50	6.04	6.33	6.12	5.59	5.28	5.46	5.58	5.55	5.58	5.83	6.11	6.11	
5.00	5.00	4.99	4.99	4.99	4.98	4.97	4.97	4.96	4.95	4.94	4.94	4.93	4.92	4.91	4.90	4.89	4.88	4.87	4.86	4.85	4.85	4.84	4.83	4.82	4.81	4.80	4.79	4.78	4.78	4.77	4.76	4.76	4.75	4.74	4.74	4.73	4.73	4.72	4.73	4.75	4.76	4.75	4.74	4.75	4.76	4.76	4.76	4.79	4.81	4.82	4.85	4.89	4.92	4.93	5.02	5.49	5.63	5.20	4.93	4.57	4.64	4.98	4.71	4.37	4.46	4.85	5.12	5.21	5.21	5.12	4.87	4.52	4.56	5.04	5.22	5.32	6.50	7.28	6.82	6.58	6.28	5.72	5.64	6.24	6.47	6.34	6.45	5.88	5.23	5.30	5.23	5.18	5.32	5.20	5.24	5.52	5.70	5.38	5.01	5.04	5.21	5.40	5.45	5.45	5.53	5.12	4.63	4.94	5.43	5.71	5.89	5.96	5.88	5.49	5.19	5.43	5.86	6.01	5.73	5.51	5.59	5.52	5.42	5.43	5.68	5.99	5.99	
5.01	5.00	5.00	5.00	4.99	4.99	4.98	4.97	4.97	4.96	4.95	4.94	4.93	4.93	4.92	4.91	4.90	4.89	4.88	4.87	4.87	4.86	4.85	4.84	4.83	4.82	4.82	4.81	4.80	4.79	4.79	4.78	4.77	4.77	4.76	4.76	4.76	4.75	4.75	4.74	4.75	4.77	4.78	4.77	4.77	4.79	4.79	4.78	4.79	4.82	4.84	4.86	4.92	4.96	4.98	4.95	5.18	5.61	5.64	5.50	5.26	5.25	5.50	5.40	4.95	4.57	4.71	5.03	5.07	5.18	5.33	5.28	4.72	4.12	4.11	4.42	4.54	5.16	6.30	6.49	6.52	6.81	6.68	5.56	5.11	5.69	5.89	6.20	6.39	5.83	5.51	5.45	5.25	5.44	5.58	5.38	5.33	5.76	5.80	5.26	5.08	5.17	5.38	5.55	5.49	5.49	5.40	4.80	4.53	4.89	5.35	5.70	5.73	5.66	5.61	5.49	5.56	5.82	6.02	5.65	5.21	5.52	5.66	5.49	5.47	5.57	5.70	5.70	
5.01	5.00	5.00	5.00	5.00	4.99	4.98	4.98	4.97	4.96	4.96	4.95	4.94	4.93	4.92	4.92	4.91	4.90	4.89	4.88	4.88	4.87	4.86	4.85	4.84	4.84	4.83	4.82	4.82	4.81	4.80	4.80	4.79	4.79	4.78	4.78	4.78	4.78	4.77	4.77	4.76	4.77	4.79	4.80	4.80	4.81	4.82	4.83	4.83	4.84	4.85	4.87	4.91	4.97	5.03	5.19	5.32	5.46	5.75	6.04	6.14	5.97	5.92	5.84	5.37	4.66	4.46	4.84	5.10	5.21	5.46	5.83	6.01	5.54	4.70	4.50	4.70	5.29	6.06	6.36	6.35	6.60	7.28	6.98	5.76	5.05	4.80	4.90	5.34	5.25	4.92	4.95	4.88	5.17	5.83	5.96	5.63	5.66	5.68	5.33	5.14	5.15	5.11	4.99	4.92	4.86	5.01	4.99	4.69	4.62	4.88	5.48	5.77	5.49	5.28	5.49	5.76	5.84	6.15	6.08	5.29	5.25	5.66	5.70	5.79	5.91	5.93	5.93	
5.01	5.01	5.01	5.00	5.00	4.99	4.99	4.98	4.98	4.97	4.96	4.95	4.95	4.94	4.93	4.92	4.92	4.91	4.90	4.89	4.89	4.88	4.87	4.86	4.86	4.85	4.84	4.84	4.83	4.82	4.82	4.81	4.81	4.81	4.80	4.80	4.80	4.80	4.79	4.79	4.79	4.79	4.80	4.82	4.83	4.83	4.84	4.84	4.84	4.86	4.86	4.88	4.89	4.94	4.98	5.24	5.65	5.67	5.48	5.47	5.61	5.56	5.52	5.78	5.79	5.31	4.99	4.98	5.12	5.20	5.41	5.76	6.17	6.58	6.27	5.68	5.54	5.73	6.09	6.21	5.77	5.47	6.28	6.97	6.74	6.14	5.47	5.35	5.53	5.51	5.30	5.03	4.68	4.51	5.10	5.82	6.06	6.26	6.02	5.29	4.71	4.52	4.73	5.17	5.36	5.10	5.20	5.38	5.25	4.86	4.40	4.64	5.44	5.60	5.09	5.23	5.68	5.70	6.04	6.36	5.71	5.25	5.48	5.69	5.73	5.91	6.08	6.08	
5.02	5.01	5.01	5.01	5.00	5.00	4.99	4.99	4.98	4.97	4.97	4.96	4.95	4.95	4.94	4.93	4.92	4.92	4.91	4.90	4.89	4.89	4.88	4.87	4.87	4.86	4.86	4.85	4.84	4.84	4.83	4.83	4.83	4.82	4.82	4.82	4.82	4.82	4.81	4.81	4.82	4.82	4.81	4.82	4.83	4.84	4.85	4.85	4.84	4.85	4.86	4.86	4.85	4.87	4.90	5.10	5.61	5.88	5.37	4.91	5.04	5.24	5.16	5.28	5.48	5.32	5.34	5.31	5.24	5.18	5.01	4.99	5.07	5.66	6.35	6.41	6.08	5.48	5.21	5.48	5.50	5.17	5.64	6.50	6.75	7.01	7.23	7.31	7.33	7.43	7.16	6.21	5.43	4.89	4.83	5.42	6.10	6.76	7.09	6.60	5.76	5.09	4.76	5.18	5.75	5.41	5.07	5.11	5.37	5.42	4.67	4.05	4.45	5.21	4.99	4.93	5.38	5.42	5.87	6.50	6.21	5.63	5.50	5.64	5.65	5.75	5.94	5.94	
5.02	5.02	5.02	5.01	5.01	5.00	5.00	4.99	4.99	4.98	4.97	4.96	4.96	4.95	4.94	4.94	4.93	4.92	4.92	4.91	4.90	4.90	4.89	4.88	4.88	4.87	4.87	4.86	4.86	4.85	4.85	4.84	4.84	4.84	4.84	4.83	4.83	4.83	4.83	4.83	4.83	4.83	4.83	4.84	4.84	4.85	4.87	4.87	4.87	4.86	4.85	4.84	4.83	4.76	4.75	4.87	5.22	5.88	5.86	5.11	4.96	5.35	5.49	5.30	5.05	4.65	4.75	5.34	5.55	5.34	4.94	4.61	4.40	4.08	3.92	4.32	5.08	5.15	4.82	5.02	5.35	5.08	5.09	6.11	6.81	6.89	7.02	7.32	7.29	7.44	8.04	7.83	6.90	6.25	5.80	5.64	6.02	6.60	7.12	7.34	7.10	6.33	5.48	5.29	5.76	5.62	4.93	4.65	4.91	5.57	5.62	4.76	4.14	4.42	4.49	4.61	5.11	4.90	5.01	5.87	6.15	5.76	5.43	5.45	5.51	5.66	5.79	5.79	
5.03	5.02	5.02	5.02	5.01	5.01	5.00	5.00	4.99	4.98	4.98	4.97	4.96	4.96	4.95	4.94	4.94	4.93	4.92	4.92	4.91	4.90	4.90	4.89	4.89	4.88	4.88	4.87	4.87	4.86	4.86	4.86	4.85	4.85	4.85	4.85	4.85	4.85	4.85	4.85	4.85	4.85	4.86	4.86	4.86	4.86	4.87	4.87	4.87	4.87	4.86	4.84	4.80	4.68	4.40	4.16	4.29	5.12	6.11	5.76	5.08	5.27	5.90	6.33	5.91	4.84	4.30	4.68	5.14	5.11	4.88	4.48	4.18	3.81	3.29	3.24	4.06	4.75	4.60	4.87	5.14	4.68	4.08	4.35	5.46	5.49	5.22	5.64	5.67	5.47	6.42	7.51	7.39	6.92	6.43	5.63	5.33	6.01	6.56	6.70	6.97	6.76	6.20	6.04	6.26	6.28	5.56	5.04	4.87	5.09	5.57	5.48	4.94	4.65	4.43	4.34	4.86	4.85	4.52	4.83	5.15	5.16	5.26	5.41	5.48	5.60	5.67	5.67	
5.04	5.03	5.03	5.02	5.02	5.01	5.00	5.00	4.99	4.99	4.98	4.97	4.97	4.96	4.95	4.95	4.94	4.93	4.93	4.92	4.92	4.91	4.90	4.90	4.89	4.89	4.88	4.88	4.88	4.87	4.87	4.87	4.86	4.86	4.86	4.86	4.86	4.86	4.86	4.86	4.87	4.87	4.87	4.88	4.88	4.88	4.88	4.88	4.88	4.89	4.88	4.86	4.80	4.68	4.41	4.07	3.82	4.14	5.46	6.26	5.85	5.26	5.36	6.34	6.84	5.92	4.93	4.67	5.03	5.11	4.92	4.81	4.74	4.85	4.62	4.15	4.22	4.63	4.51	4.92	5.49	5.09	4.13	3.71	4.50	4.61	4.45	4.91	5.11	4.82	4.97	5.81	6.10	6.09	6.11	5.60	4.93	5.16	5.94	6.19	6.49	6.65	6.32	6.13	6.37	6.60	6.27	5.79	5.54	5.40	5.47	5.56	5.36	5.03	4.60	4.17	4.38	4.77	4.73	4.82	4.83	4.65	5.00	5.51	5.79	5.90	5.92	5.92	
5.04	5.04	5.03	5.03	5.02	5.01	5.01	5.00	4.99	4.99	4.98	4.97	4.97	4.96	4.96	4.95	4.94	4.94	4.93	4.93	4.92	4.91	4.91	4.90	4.90	4.90	4.89	4.89	4.88	4.88	4.88	4.88	4.87	4.87	4.87	4.87	4.87	4.87	4.87	4.88	4.88	4.88	4.89	4.89	4.89	4.90	4.90	4.91	4.90	4.90	4.89	4.86	4.81	4.74	4.62	4.46	4.11	3.84	4.24	5.18	5.63	5.24	4.57	4.97	6.32	6.23	5.34	5.04	5.48	5.81	5.65	5.58	5.54	5.72	5.81	5.53	5.12	4.81	4.72	4.98	5.60	5.59	4.50	3.90	4.52	4.81	4.64	4.77	5.03	4.95	4.94	5.32	5.28	5.34	5.72	5.62	5.02	4.85	5.29	5.58	5.87	6.30	6.36	6.19	6.47	6.75	6.84	6.89	6.67	6.28	6.01	5.89	5.66	5.44	5.20	4.81	4.51	4.53	4.74	5.30	5.34	4.81	4.95	5.38	5.66	5.92	6.08	6.08	
5.05	5.04	5.04	5.03	5.02	5.01	5.01	5.00	4.99	4.99	4.98	4.98	4.97	4.96	4.96	4.95	4.95	4.94	4.93	4.93	4.92	4.92	4.91	4.91	4.90	4.90	4.90	4.89	4.89	4.89	4.88	4.88	4.88	4.88	4.88	4.88	4.88	4.88	4.88	4.89	4.89	4.89	4.90	4.90	4.91	4.91	4.91	4.92	4.92	4.91	4.90	4.88	4.85	4.80	4.72	4.60	4.38	3.98	3.79	3.99	4.35	4.66	4.36	4.23	5.35	5.95	5.37	5.02	5.38	5.82	5.90	5.78	5.33	5.26	5.59	5.83	5.72	4.98	4.78	5.14	5.54	5.65	4.86	4.38	4.61	4.68	4.51	4.51	4.66	4.72	4.97	5.48	5.32	5.01	5.29	5.51	5.29	5.15	5.37	5.17	4.79	5.20	5.87	6.15	6.44	6.79	6.91	7.10	7.35	7.22	7.02	7.11	6.98	6.54	6.26	6.03	5.73	5.13	4.59	5.03	5.49	5.08	4.99	5.24	5.39	5.71	6.00	6.00	
5.06	5.05	5.04	5.03	5.02	5.01	5.01	5.00	4.99	4.99	4.98	4.98	4.97	4.96	4.96	4.95	4.95	4.94	4.93	4.93	4.92	4.92	4.92	4.91	4.91	4.90	4.90	4.90	4.89	4.89	4.89	4.89	4.89	4.89	4.89	4.89	4.89	4.89	4.89	4.89	4.90	4.90	4.91	4.91	4.92	4.92	4.93	4.93	4.93	4.93	4.92	4.91	4.89	4.85	4.80	4.71	4.57	4.38	4.22	4.17	4.21	4.33	4.30	4.01	4.40	5.20	5.12	4.68	4.68	4.84	4.89	5.13	4.84	4.51	4.64	5.06	5.55	5.19	4.60	4.73	5.35	5.71	5.51	5.11	5.13	5.06	4.80	4.86	4.85	4.71	4.81	5.31	5.48	5.20	5.15	5.38	5.48	5.41	5.69	5.74	5.12	4.90	5.22	5.48	5.48	5.58	5.65	5.72	6.21	6.66	6.70	6.90	7.20	7.27	7.18	7.10	7.18	6.96	6.17	6.00	6.34	6.09	5.56	5.42	5.39	5.56	5.80	5.80	
5.06	5.05	5.04	5.03	5.02	5.02	5.01	5.00	5.00	4.99	4.98	4.98	4.97	4.97	4.96	4.95	4.95	4.94	4.94	4.93	4.93	4.92	4.92	4.92	4.91	4.91	4.91	4.90	4.90	4.90	4.90	4.89	4.89	4.89	4.89	4.89	4.90	4.90	4.90	4.90	4.91	4.91	4.92	4.92	4.93	4.93	4.94	4.94	4.95	4.95	4.94	4.93	4.91	4.88	4.82	4.75	4.68	4.59	4.50	4.53	4.54	4.41	4.26	3.91	3.88	4.49	4.72	4.30	4.21	4.31	4.17	4.57	4.59	4.21	4.18	4.55	5.21	5.22	4.44	4.19	4.92	5.60	5.66	5.24	5.41	5.67	5.47	5.39	5.27	4.96	4.77	5.09	5.54	5.61	5.45	5.34	5.42	5.45	5.84	6.38	6.25	5.59	5.11	5.04	4.84	4.74	4.93	5.00	5.13	5.51	5.62	5.74	6.34	7.11	7.56	7.63	7.88	8.24	8.02	7.53	7.35	7.01	6.23	5.64	5.40	5.46	5.63	5.63	
