ncols	128
nrows	92
xllcorner	280654.681342
yllcorner	3772085.885776
cellsize	500.000000
NODATA_value	-32768.000000
3.46	3.21	3.34	3.66	3.55	3.35	3.03	3.20	3.79	3.88	3.80	3.85	3.68	3.62	3.36	3.10	3.15	3.02	3.33	3.88	4.08	4.05	4.00	4.08	4.01	3.86	4.03	4.11	3.87	3.78	3.87	3.89	3.89	3.96	4.04	4.13	4.29	4.51	4.86	4.86	4.94	5.02	4.65	4.57	4.87	5.04	4.92	4.58	4.15	4.75	5.21	5.27	5.23	5.35	5.20	4.85	4.59	4.24	4.21	4.29	4.47	5.23	5.65	5.66	5.85	5.75	5.54	5.11	4.38	3.95	3.94	4.22	4.31	4.12	3.83	3.83	3.82	3.62	3.71	3.82	3.87	3.57	4.70	5.97	5.59	4.94	5.08	5.32	5.35	4.97	5.07	5.28	5.12	5.32	5.25	4.78	4.66	4.31	3.82	3.60	3.86	3.96	4.38	5.32	4.94	3.96	3.82	3.63	3.71	3.73	3.82	3.85	3.71	4.06	4.24	4.15	4.19	4.36	4.60	4.66	4.68	4.76	4.78	4.66	4.50	4.47	4.45	4.45	
3.46	3.21	3.34	3.66	3.55	3.35	3.03	3.20	3.79	3.88	3.80	3.85	3.68	3.62	3.36	3.10	3.15	3.02	3.33	3.88	4.08	4.05	4.00	4.08	4.01	3.86	4.03	4.11	3.87	3.78	3.87	3.89	3.89	3.96	4.04	4.13	4.29	4.51	4.86	4.86	4.94	5.02	4.65	4.57	4.87	5.04	4.92	4.58	4.15	4.75	5.21	5.27	5.23	5.35	5.20	4.85	4.59	4.24	4.21	4.29	4.47	5.23	5.65	5.66	5.85	5.75	5.54	5.11	4.38	3.95	3.94	4.22	4.31	4.12	3.83	3.83	3.82	3.62	3.71	3.82	3.87	3.57	4.70	5.97	5.59	4.94	5.08	5.32	5.35	4.97	5.07	5.28	5.12	5.32	5.25	4.78	4.66	4.31	3.82	3.60	3.86	3.96	4.38	5.32	4.94	3.96	3.82	3.63	3.71	3.73	3.82	3.85	3.71	4.06	4.24	4.15	4.19	4.36	4.60	4.66	4.68	4.76	4.78	4.66	4.50	4.47	4.45	4.45	
3.56	3.00	2.83	3.32	3.53	3.42	2.84	2.71	3.35	3.53	3.48	3.72	3.61	3.60	3.54	3.34	3.31	3.06	3.00	3.39	3.65	3.67	3.62	3.77	3.81	3.53	3.58	3.87	3.77	3.64	3.63	3.69	3.66	3.65	3.71	3.69	3.52	3.52	4.16	4.24	4.31	4.65	4.36	3.80	4.06	4.54	4.44	4.40	3.94	4.15	4.42	4.16	4.27	4.78	4.82	4.88	4.94	4.35	4.16	4.17	3.91	4.40	4.99	4.90	5.08	5.25	5.34	5.25	4.77	4.35	4.13	4.33	4.50	4.39	4.11	4.03	3.94	3.72	3.83	3.97	4.05	3.67	4.03	5.40	5.56	4.88	4.93	5.25	5.56	5.41	5.25	5.17	4.53	4.59	5.23	5.16	5.07	4.76	4.20	3.75	3.80	3.80	3.82	5.01	5.38	4.64	4.40	4.02	3.81	3.68	3.67	3.73	3.61	3.85	4.06	4.04	4.08	4.18	4.39	4.38	4.27	4.33	4.43	4.42	4.35	4.42	4.49	4.49	
4.01	3.27	2.63	2.85	3.37	3.60	3.01	2.62	3.09	3.26	3.22	3.60	3.67	3.58	3.63	3.61	3.49	3.09	2.88	3.16	3.39	3.35	3.27	3.41	3.64	3.45	3.32	3.56	3.65	3.63	3.52	3.58	3.60	3.51	3.47	3.30	3.11	3.19	3.58	3.49	3.51	4.09	4.08	3.42	3.77	4.51	4.02	3.92	3.63	3.47	3.77	3.55	3.95	4.44	3.96	4.42	5.39	4.77	3.99	4.10	3.66	3.58	4.23	4.18	4.23	4.75	5.24	5.35	5.10	4.85	4.52	4.47	4.70	4.75	4.55	4.39	4.18	3.97	4.16	4.37	4.10	3.28	3.22	4.85	5.55	4.99	4.79	4.82	5.22	5.57	5.62	5.59	4.56	4.02	4.84	5.26	5.59	5.27	4.80	4.35	3.85	3.44	3.29	4.56	5.47	5.58	5.59	5.22	4.47	3.79	3.65	3.65	3.60	3.73	3.81	3.80	3.91	4.00	4.21	4.28	4.14	4.16	4.29	4.23	4.18	4.32	4.43	4.43	
4.06	3.88	3.30	2.82	3.05	3.43	3.20	2.92	3.11	3.22	3.27	3.40	3.52	3.50	3.40	3.50	3.46	3.12	3.01	3.22	3.39	3.31	3.25	3.37	3.53	3.48	3.34	3.36	3.44	3.56	3.50	3.49	3.57	3.52	3.45	3.30	3.23	3.28	3.38	3.35	3.39	3.84	3.89	3.31	3.62	4.70	4.30	3.84	3.69	3.46	3.63	3.61	4.37	4.54	3.33	3.30	5.11	5.35	3.99	3.93	3.84	3.73	4.21	4.40	4.48	4.70	5.17	5.47	5.32	5.24	5.03	4.64	4.72	4.80	4.58	4.41	4.15	3.82	3.89	4.19	3.65	2.89	2.93	4.13	5.10	5.00	4.88	4.49	4.56	5.23	5.85	5.97	5.29	4.90	4.90	5.02	5.65	5.42	4.98	4.77	4.25	3.32	3.08	4.22	4.78	5.23	5.71	6.09	5.55	4.14	3.98	3.93	3.83	4.10	3.88	3.53	3.77	4.13	4.30	4.23	4.06	4.21	4.49	4.38	4.19	4.25	4.29	4.29	
3.49	3.82	3.79	3.11	2.92	3.11	2.90	2.84	3.01	3.14	3.40	3.36	3.29	3.38	3.33	3.36	3.39	3.16	3.07	3.23	3.37	3.34	3.31	3.43	3.52	3.45	3.34	3.34	3.39	3.45	3.45	3.42	3.45	3.42	3.40	3.32	3.25	3.15	3.18	3.37	3.42	3.77	3.84	3.21	3.35	4.25	4.27	4.04	4.07	3.93	3.57	3.71	4.57	4.70	3.87	2.81	3.69	5.45	4.68	3.68	3.58	3.94	4.23	4.43	4.91	4.79	4.88	5.40	5.50	5.68	5.55	5.00	5.04	5.13	4.83	4.39	3.67	3.45	3.63	3.87	3.73	3.10	2.72	3.14	3.87	4.38	4.89	4.37	3.97	4.36	5.26	5.40	4.75	5.00	5.15	5.27	5.55	5.35	5.21	5.26	5.06	4.01	3.08	3.82	4.49	4.56	4.93	6.04	6.22	4.56	3.97	3.89	3.77	4.37	4.48	3.71	3.77	4.38	4.79	4.50	3.75	3.84	4.32	4.41	4.37	4.34	4.28	4.28	
3.25	3.57	3.86	3.54	3.26	3.13	2.78	2.73	2.88	3.08	3.39	3.52	3.43	3.32	3.33	3.33	3.27	3.18	3.17	3.28	3.35	3.37	3.38	3.47	3.54	3.50	3.41	3.41	3.46	3.48	3.46	3.45	3.46	3.41	3.38	3.34	3.33	3.21	3.08	3.22	3.21	3.50	3.81	3.53	3.67	3.82	3.70	3.73	3.94	4.08	3.68	3.99	4.41	4.44	4.61	3.55	2.95	4.60	5.34	4.04	3.26	3.73	3.76	3.70	4.68	4.65	4.62	4.95	5.08	5.73	5.76	5.16	5.24	5.55	5.75	5.35	4.05	3.78	4.10	4.24	4.04	3.47	2.97	2.65	2.81	3.78	4.73	4.28	3.51	3.57	4.91	5.12	4.15	4.30	4.79	5.39	5.61	5.03	4.65	4.92	5.18	4.87	3.84	3.71	4.71	4.86	4.69	5.74	6.51	5.73	4.58	3.90	3.40	3.73	4.49	4.29	4.04	4.44	5.17	5.42	4.32	3.79	4.16	4.21	4.26	4.28	4.22	4.22	
3.25	3.50	3.73	3.74	3.83	3.59	3.07	2.88	2.91	3.06	3.23	3.45	3.60	3.44	3.43	3.42	3.26	3.22	3.24	3.29	3.27	3.32	3.41	3.48	3.50	3.45	3.41	3.42	3.45	3.46	3.43	3.42	3.42	3.37	3.34	3.32	3.28	3.25	3.22	3.14	3.06	3.16	3.43	3.61	3.79	3.75	3.48	3.52	3.67	3.66	3.69	4.11	4.11	4.06	4.50	4.22	3.51	3.84	5.08	4.67	3.29	3.23	3.35	3.61	4.43	4.14	4.19	4.39	4.48	5.49	5.76	4.98	4.78	4.95	5.31	5.79	5.20	4.53	4.11	4.09	4.23	4.28	3.98	3.01	2.79	3.67	4.80	4.89	4.10	3.66	4.98	5.11	4.37	4.30	4.60	5.08	5.56	5.39	4.50	4.22	4.41	4.76	4.19	3.65	4.51	5.09	4.84	5.27	5.95	6.12	5.95	5.16	4.16	3.58	3.72	3.92	3.89	4.06	4.61	5.50	5.26	4.38	4.53	4.61	4.50	4.39	4.25	4.25	
3.08	3.41	3.64	3.51	3.75	3.83	3.46	3.20	3.11	3.13	3.18	3.29	3.43	3.44	3.48	3.45	3.29	3.25	3.32	3.39	3.31	3.26	3.36	3.47	3.50	3.43	3.42	3.47	3.52	3.50	3.44	3.45	3.45	3.31	3.31	3.39	3.30	3.29	3.47	3.38	3.22	3.16	3.23	3.48	3.62	3.70	3.53	3.50	3.65	3.58	3.64	3.94	3.91	4.03	4.18	3.95	3.87	3.86	4.51	4.76	3.97	3.37	3.04	3.49	4.23	4.02	3.78	3.77	3.91	5.05	5.47	5.04	4.89	4.53	4.43	4.76	4.52	4.34	4.03	3.96	4.22	4.72	5.01	4.27	3.44	3.69	4.65	5.42	5.29	4.57	5.04	4.97	4.68	4.86	4.89	4.82	5.05	5.72	5.46	4.56	4.16	4.47	4.19	3.46	3.85	4.63	4.93	5.32	5.34	5.21	5.89	5.86	5.14	4.61	3.99	3.58	3.71	3.94	4.07	4.78	5.21	4.79	4.68	4.88	4.92	4.96	4.95	4.95	
2.90	3.16	3.62	3.54	3.46	3.53	3.43	3.37	3.31	3.23	3.21	3.27	3.24	3.27	3.39	3.37	3.30	3.26	3.30	3.45	3.44	3.31	3.29	3.41	3.48	3.41	3.40	3.49	3.58	3.56	3.38	3.38	3.49	3.30	3.30	3.48	3.41	3.30	3.43	3.53	3.44	3.37	3.35	3.40	3.47	3.58	3.49	3.33	3.48	3.78	3.75	3.60	3.68	3.96	3.98	3.72	3.75	3.94	4.42	4.63	4.78	4.55	3.35	3.13	3.73	4.08	3.75	3.54	3.79	4.95	5.01	4.86	5.56	5.67	5.42	4.70	4.22	4.31	4.58	4.64	4.20	4.15	4.58	4.36	3.71	3.55	3.98	4.71	5.59	5.48	4.98	4.61	4.36	5.01	5.30	4.70	4.40	4.99	5.85	5.30	4.52	4.55	4.35	3.70	3.73	4.08	4.42	5.09	4.94	4.30	5.01	5.52	4.81	4.53	4.37	3.79	3.85	4.28	4.21	4.47	4.66	4.49	4.40	4.31	4.24	4.78	5.32	5.32	
2.82	2.94	3.53	3.72	3.49	3.36	3.26	3.31	3.33	3.30	3.28	3.29	3.23	3.22	3.28	3.29	3.27	3.28	3.26	3.36	3.47	3.38	3.28	3.36	3.44	3.38	3.34	3.50	3.77	3.83	3.56	3.46	3.53	3.39	3.38	3.50	3.46	3.35	3.34	3.41	3.40	3.43	3.48	3.46	3.48	3.61	3.55	3.27	3.28	3.70	3.90	3.71	3.62	3.78	3.67	3.67	4.00	4.26	4.80	4.97	5.32	5.96	5.36	4.12	3.93	4.39	4.34	4.20	4.17	5.35	5.40	4.23	4.92	6.05	6.84	6.18	5.03	4.64	4.50	4.62	4.41	4.29	4.25	4.00	3.78	3.59	3.67	3.92	5.02	5.71	4.55	4.38	4.41	4.73	5.44	5.04	4.07	4.01	5.35	5.51	4.60	4.20	4.29	4.24	4.13	4.00	4.05	4.82	4.94	3.97	4.33	5.59	5.15	4.21	4.06	3.75	3.75	4.19	4.16	4.35	4.41	4.17	4.31	4.30	4.00	4.31	4.82	4.82	
2.82	2.83	3.34	3.62	3.43	3.32	3.23	3.25	3.27	3.32	3.33	3.33	3.24	3.19	3.22	3.20	3.23	3.31	3.32	3.32	3.42	3.37	3.21	3.28	3.41	3.32	3.18	3.27	3.66	3.99	3.90	3.74	3.64	3.49	3.44	3.46	3.46	3.38	3.41	3.40	3.25	3.34	3.55	3.52	3.50	3.68	3.70	3.44	3.27	3.29	3.53	3.84	3.78	3.74	3.38	3.32	3.80	4.15	4.44	4.70	4.85	5.52	6.40	6.04	5.33	5.17	5.30	5.29	4.57	4.92	5.99	4.60	3.69	4.49	6.51	6.94	5.28	4.35	4.47	4.57	4.50	4.75	4.56	4.00	3.84	3.75	3.80	3.87	4.88	5.84	4.36	4.05	4.74	4.88	5.25	5.37	4.33	3.67	4.76	5.24	4.49	3.93	4.10	4.74	4.95	4.57	4.26	4.68	5.33	4.63	3.77	4.97	5.79	5.04	4.35	3.82	3.82	4.17	4.06	4.16	4.23	4.09	4.29	4.33	4.31	4.36	4.37	4.37	
2.98	2.91	3.23	3.44	3.31	3.27	3.25	3.23	3.24	3.31	3.31	3.42	3.32	3.12	3.15	3.17	3.20	3.31	3.39	3.37	3.43	3.42	3.18	3.26	3.45	3.32	3.17	3.01	3.11	3.59	3.78	3.71	3.65	3.68	3.56	3.45	3.51	3.42	3.55	3.57	3.24	3.32	3.68	3.61	3.51	3.72	3.83	3.74	3.57	3.22	3.11	3.40	3.58	3.65	3.22	3.03	3.26	3.48	3.65	3.85	3.88	3.94	4.93	5.85	5.47	4.77	4.89	5.48	4.83	4.50	5.87	5.52	3.92	3.68	5.53	7.05	6.03	4.47	4.61	4.91	4.48	4.70	4.76	4.19	3.96	3.99	4.04	3.94	4.92	5.99	4.67	3.75	4.47	5.16	5.19	5.38	4.61	3.72	4.72	5.38	4.80	4.24	3.93	4.52	5.24	5.05	4.46	4.27	5.08	5.34	4.11	4.01	5.11	5.22	4.77	4.17	4.16	4.56	4.34	4.40	4.27	4.12	4.51	4.30	4.32	4.48	4.35	4.35	
3.28	3.07	3.08	3.26	3.24	3.24	3.28	3.20	3.14	3.26	3.29	3.44	3.50	3.20	3.06	3.14	3.22	3.30	3.42	3.41	3.41	3.47	3.22	3.22	3.41	3.24	3.22	3.12	2.96	3.25	3.47	3.46	3.54	3.85	3.72	3.43	3.48	3.31	3.48	3.59	3.26	3.36	3.71	3.66	3.57	3.77	3.92	4.02	4.08	3.78	3.42	3.34	3.49	3.63	3.24	3.02	3.35	3.59	3.66	3.71	3.64	3.72	4.21	5.06	5.29	4.49	4.24	4.89	4.85	4.88	5.77	5.78	4.51	3.55	4.71	6.57	6.61	5.25	4.72	5.08	4.87	4.72	4.73	4.37	4.14	4.28	4.38	4.08	4.79	5.95	5.33	3.90	4.00	5.12	5.37	5.82	4.98	3.56	4.26	5.04	4.66	4.04	3.83	4.30	4.91	5.10	4.77	4.37	4.73	5.35	5.12	4.58	4.65	4.80	4.76	4.26	4.11	4.52	4.41	4.67	4.69	4.38	4.95	4.92	4.36	4.26	4.27	4.27	
3.63	3.31	2.97	3.04	3.14	3.18	3.32	3.28	3.08	3.16	3.24	3.34	3.53	3.36	3.08	3.09	3.26	3.30	3.35	3.39	3.38	3.51	3.39	3.27	3.36	3.18	3.13	3.14	3.08	3.20	3.28	3.16	3.37	3.94	3.85	3.62	3.68	3.40	3.45	3.52	3.27	3.52	3.80	3.72	3.74	3.89	4.01	4.14	4.38	4.47	4.26	4.08	4.10	4.09	3.59	3.06	3.33	3.81	3.95	3.75	3.43	3.66	4.05	4.74	5.39	4.83	4.24	4.17	4.16	4.59	5.24	5.79	5.19	3.71	3.99	5.59	6.19	5.75	5.16	5.04	5.13	4.98	4.75	4.45	4.19	4.43	4.88	4.67	4.71	5.71	5.88	4.50	4.08	4.87	5.10	6.04	5.82	4.10	3.91	4.33	4.08	3.51	3.70	4.40	4.57	4.72	4.66	4.31	4.36	4.63	4.95	5.05	4.75	4.57	4.69	4.46	4.23	4.47	4.41	4.55	4.74	4.42	4.81	5.48	4.95	4.38	4.40	4.40	
3.88	3.46	2.97	2.91	2.98	3.04	3.21	3.30	3.10	3.10	3.17	3.23	3.36	3.27	3.06	3.07	3.27	3.34	3.31	3.25	3.31	3.54	3.58	3.53	3.61	3.50	3.33	3.09	3.04	3.21	3.21	2.89	3.14	3.88	3.86	3.92	4.12	3.92	3.87	3.86	3.64	3.86	4.07	3.91	3.99	4.01	3.97	4.04	4.09	4.31	4.20	3.99	4.11	4.18	3.71	3.09	3.15	3.72	4.17	3.88	3.20	3.34	3.75	4.30	5.03	4.96	4.71	4.12	3.88	4.23	4.24	5.01	5.57	4.49	3.90	4.68	5.31	5.34	5.18	4.92	5.01	5.09	4.85	4.53	4.14	4.17	4.87	5.14	4.77	5.30	5.98	5.23	4.52	4.63	4.63	5.47	6.15	5.44	4.92	4.81	4.12	3.28	3.57	4.51	4.49	4.34	4.52	4.34	4.28	4.28	4.42	4.77	4.72	4.44	4.54	4.70	4.60	4.51	4.38	4.45	4.46	4.01	4.20	5.14	5.39	4.96	4.74	4.74	
4.10	3.50	2.90	2.85	2.82	2.86	3.02	3.18	3.09	3.09	3.13	3.21	3.24	3.10	2.99	3.05	3.25	3.37	3.32	3.16	3.20	3.49	3.55	3.53	3.71	3.87	3.90	3.44	3.15	3.33	3.33	3.02	3.18	3.73	3.65	3.80	4.08	3.88	3.98	3.99	3.77	4.01	4.10	3.79	3.95	3.98	3.76	3.84	3.73	3.97	4.02	3.81	4.06	4.21	3.72	3.15	3.04	3.56	4.26	4.04	3.55	3.68	3.96	4.26	4.55	4.81	5.26	4.75	4.25	4.28	4.04	4.55	5.21	5.18	4.58	4.37	4.80	5.02	5.10	4.95	4.93	5.03	4.89	4.65	4.24	3.92	4.29	4.98	4.79	4.84	5.47	5.36	4.97	4.83	4.71	5.04	5.85	5.97	5.80	5.75	4.98	3.71	3.66	4.65	4.66	4.35	4.50	4.53	4.43	4.35	4.40	4.66	4.78	4.54	4.34	4.38	4.41	4.26	4.04	4.30	4.39	3.93	4.03	4.36	4.79	5.13	5.00	5.00	
4.20	3.74	3.15	2.99	2.88	2.79	2.92	3.08	3.06	3.08	3.17	3.26	3.15	2.95	2.93	3.00	3.16	3.27	3.23	3.13	3.13	3.31	3.40	3.28	3.33	3.60	3.96	3.93	3.67	3.67	3.61	3.35	3.33	3.54	3.35	3.48	3.79	3.45	3.56	3.67	3.33	3.81	3.98	3.60	3.81	3.93	3.73	3.74	3.61	3.85	4.02	3.76	4.12	4.42	3.95	3.31	2.92	3.37	4.17	4.06	3.87	4.10	4.36	4.49	4.33	4.46	5.26	5.33	4.92	4.58	4.18	4.61	4.78	5.03	5.11	4.73	4.76	4.89	5.05	4.98	4.94	4.98	4.92	4.77	4.51	4.17	4.15	4.64	4.73	4.82	5.15	5.19	5.22	5.08	4.90	4.83	5.12	5.43	5.51	5.61	5.42	4.41	3.94	4.60	4.68	4.48	4.48	4.52	4.46	4.33	4.25	4.35	4.51	4.45	4.34	4.31	4.34	4.22	3.98	4.12	4.24	3.93	4.12	4.19	4.27	4.86	5.00	5.00	
3.89	3.76	3.53	3.33	3.22	2.99	2.94	3.10	3.07	3.05	3.23	3.37	3.09	2.81	2.88	3.03	3.12	3.13	3.10	3.11	3.11	3.19	3.27	3.19	3.09	3.15	3.36	3.51	3.43	3.43	3.32	3.19	3.33	3.41	3.24	3.25	3.48	3.19	3.15	3.41	3.28	3.53	3.76	3.58	3.69	3.94	3.92	3.78	3.55	3.68	3.98	3.67	3.92	4.43	4.20	3.68	3.08	3.26	3.93	4.02	4.06	4.27	4.38	4.46	4.44	4.38	4.83	5.33	5.39	4.95	4.23	4.46	4.68	4.64	4.83	4.89	4.92	4.92	5.00	5.02	4.99	4.99	4.96	4.88	4.74	4.56	4.45	4.54	4.60	4.88	5.25	5.18	5.25	4.96	4.68	4.85	4.73	5.05	5.31	5.20	5.19	4.64	4.26	4.52	4.56	4.51	4.52	4.54	4.49	4.40	4.26	4.19	4.23	4.25	4.26	4.28	4.29	4.23	4.08	4.03	4.01	3.78	3.99	4.30	4.30	4.60	4.81	4.81	
3.60	3.45	3.37	3.33	3.33	3.20	3.00	3.10	3.09	3.00	3.21	3.50	3.22	2.73	2.81	3.03	3.11	3.03	3.08	3.15	3.12	3.19	3.15	3.08	3.03	3.10	3.19	3.20	3.13	3.16	3.09	3.11	3.36	3.40	3.38	3.36	3.35	3.17	2.94	3.19	3.52	3.45	3.58	3.62	3.53	3.83	4.08	3.98	3.64	3.58	3.84	3.66	3.73	4.25	4.27	4.04	3.59	3.29	3.62	3.85	4.05	4.50	4.40	4.10	4.37	4.42	4.36	4.91	5.37	5.27	4.54	4.24	4.61	4.63	4.58	4.74	4.97	5.06	5.10	5.12	5.10	5.08	5.06	5.02	4.92	4.81	4.73	4.64	4.42	4.44	4.92	5.07	5.23	5.04	4.65	4.90	4.74	4.92	5.23	5.14	5.04	4.72	4.55	4.56	4.54	4.50	4.52	4.55	4.51	4.45	4.38	4.30	4.22	4.17	4.18	4.19	4.16	4.14	4.08	4.02	3.99	3.84	3.79	4.06	4.22	4.37	4.52	4.52	
3.67	3.37	3.07	3.07	3.13	3.10	2.99	3.04	3.06	2.96	3.06	3.46	3.37	2.73	2.75	2.99	3.07	3.03	3.06	3.16	3.20	3.26	3.04	2.89	2.95	3.09	3.14	3.24	3.24	3.15	3.08	3.16	3.35	3.28	3.30	3.53	3.48	3.23	2.93	3.03	3.58	3.53	3.52	3.63	3.50	3.63	3.96	4.08	3.84	3.69	3.77	3.70	3.66	4.05	4.09	3.91	3.95	3.51	3.37	3.64	3.89	4.46	4.49	4.08	4.29	4.38	3.99	4.32	4.93	5.11	4.69	4.17	4.35	4.60	4.65	4.74	4.92	5.06	5.16	5.22	5.22	5.20	5.17	5.12	5.05	4.96	4.89	4.80	4.55	4.31	4.52	4.77	4.94	4.94	4.75	4.80	4.72	4.75	4.91	4.96	4.91	4.75	4.66	4.61	4.56	4.52	4.54	4.54	4.51	4.49	4.45	4.37	4.26	4.13	4.14	4.14	4.09	4.11	4.07	3.98	3.93	3.89	3.96	4.02	3.95	4.02	4.12	4.12	
3.82	3.50	3.05	2.95	3.03	3.00	2.89	2.97	2.99	2.97	3.00	3.31	3.37	2.79	2.71	2.90	3.01	3.06	3.02	3.05	3.19	3.38	3.09	2.75	2.91	3.07	3.02	3.06	3.15	3.17	3.13	3.20	3.33	3.19	3.03	3.39	3.59	3.33	3.06	3.00	3.46	3.60	3.38	3.43	3.51	3.59	3.76	3.92	3.96	3.81	3.81	3.84	3.82	4.05	3.99	3.72	3.94	3.82	3.42	3.53	3.98	4.35	4.19	4.11	4.38	4.48	3.94	3.81	4.27	4.23	4.51	4.34	4.34	4.52	4.71	4.91	5.08	5.15	5.23	5.32	5.33	5.33	5.31	5.26	5.19	5.10	5.02	4.94	4.80	4.61	4.57	4.64	4.69	4.70	4.68	4.72	4.75	4.73	4.73	4.77	4.75	4.71	4.65	4.59	4.55	4.50	4.52	4.49	4.43	4.47	4.51	4.58	4.52	4.34	4.35	4.29	4.17	4.23	4.19	4.05	3.93	3.82	4.16	4.55	4.22	3.79	3.70	3.70	
3.87	3.60	3.21	3.04	3.07	3.06	2.89	2.92	2.92	2.90	3.03	3.28	3.28	2.85	2.77	2.84	2.91	3.02	2.96	3.04	3.14	3.40	3.29	2.74	2.86	3.05	3.07	3.00	2.92	3.10	3.24	3.39	3.42	3.21	2.91	3.14	3.46	3.31	3.13	2.99	3.36	3.71	3.37	3.27	3.43	3.67	3.68	3.65	3.94	3.80	3.66	3.75	4.05	4.17	3.95	3.80	3.95	4.03	3.59	3.50	4.10	4.58	4.14	3.97	4.41	4.65	4.38	4.04	4.25	4.36	4.68	4.69	4.66	4.74	4.84	5.06	5.31	5.40	5.41	5.46	5.48	5.46	5.43	5.39	5.32	5.24	5.16	5.08	4.99	4.89	4.83	4.79	4.76	4.74	4.69	4.69	4.77	4.77	4.73	4.67	4.60	4.52	4.49	4.51	4.49	4.50	4.52	4.48	4.41	4.42	4.36	4.49	4.61	4.47	4.57	4.54	4.37	4.41	4.39	4.16	4.04	3.78	3.82	4.57	4.90	4.19	3.58	3.58	
3.80	3.58	3.23	3.10	3.10	2.99	2.89	2.89	2.84	2.75	2.89	3.28	3.20	2.71	2.81	3.01	2.93	2.97	2.87	3.00	3.11	3.24	3.41	2.96	2.82	2.97	3.05	3.02	2.89	3.00	3.18	3.41	3.50	3.28	2.93	3.00	3.27	3.23	3.13	2.94	3.28	3.72	3.41	3.26	3.38	3.68	3.62	3.54	3.94	3.90	3.61	3.65	4.13	4.20	3.88	3.75	3.98	4.20	3.74	3.55	4.01	4.73	4.52	4.00	4.36	4.64	4.63	4.62	4.81	5.09	5.15	5.07	5.04	5.08	5.09	5.22	5.46	5.60	5.65	5.65	5.64	5.60	5.56	5.54	5.46	5.36	5.28	5.20	5.12	5.05	4.98	4.88	4.82	4.81	4.77	4.73	4.74	4.79	4.85	4.70	4.63	4.39	4.26	4.46	4.55	4.64	4.52	4.46	4.51	4.54	4.35	4.17	4.31	4.17	4.13	4.29	4.22	4.28	4.46	4.16	3.91	3.61	3.36	3.83	4.67	4.65	4.17	4.17	
3.77	3.53	3.08	3.06	3.23	2.93	2.79	2.82	2.76	2.61	2.61	3.09	3.17	2.58	2.60	3.17	3.11	2.89	2.81	2.98	3.10	2.98	3.30	3.23	2.87	2.95	3.01	2.93	2.93	3.03	3.16	3.34	3.50	3.33	3.01	2.97	3.08	3.12	3.09	2.92	3.16	3.59	3.41	3.22	3.46	3.70	3.42	3.39	3.88	3.93	3.62	3.70	4.19	4.22	3.94	3.73	3.98	4.32	3.95	3.69	3.89	4.56	4.74	4.32	4.51	4.76	4.85	5.05	5.29	5.52	5.52	5.37	5.34	5.40	5.42	5.52	5.70	5.81	5.87	5.87	5.83	5.76	5.70	5.67	5.58	5.46	5.36	5.29	5.22	5.20	5.16	4.95	4.79	4.80	4.80	4.84	4.87	4.81	5.03	5.13	5.00	4.51	4.17	4.34	4.58	4.89	4.63	4.37	4.45	4.66	4.74	4.39	4.57	4.57	4.07	4.09	4.08	4.08	4.34	4.31	4.03	3.55	3.21	3.39	3.95	4.38	4.45	4.45	
3.74	3.67	3.19	3.07	3.38	3.10	2.88	2.86	2.76	2.56	2.42	2.75	2.92	2.60	2.44	3.04	3.27	2.75	2.62	3.03	3.20	2.88	3.08	3.26	2.95	2.95	3.01	2.92	2.84	2.98	3.15	3.27	3.54	3.45	3.13	3.00	2.97	2.99	2.93	2.93	3.12	3.36	3.36	3.14	3.53	3.83	3.38	3.24	3.67	3.83	3.56	3.71	4.23	4.29	4.01	3.80	4.00	4.38	4.21	3.92	4.00	4.47	4.75	4.65	4.77	5.03	5.24	5.48	5.72	5.87	5.88	5.69	5.57	5.66	5.76	5.90	6.06	6.14	6.15	6.10	6.01	5.89	5.81	5.81	5.73	5.57	5.46	5.38	5.25	5.26	5.40	5.26	4.82	4.68	4.65	4.66	4.96	4.89	4.81	5.34	5.39	4.58	4.13	4.29	4.63	5.04	4.81	4.35	4.23	4.53	4.87	4.63	4.82	5.21	4.93	4.59	4.35	4.36	4.42	4.43	4.33	3.84	3.34	3.21	3.65	4.01	4.04	4.04	
3.32	3.60	3.51	3.31	3.58	3.42	3.21	3.08	2.86	2.64	2.46	2.55	2.48	2.47	2.53	2.91	3.34	2.73	2.48	2.99	3.21	2.88	2.93	3.15	2.97	2.92	3.02	3.07	2.89	2.91	3.02	3.06	3.34	3.52	3.35	3.07	3.00	3.05	2.81	2.88	3.16	3.20	3.23	3.03	3.42	3.87	3.56	3.32	3.49	3.75	3.54	3.59	4.13	4.33	4.10	3.85	3.94	4.41	4.47	4.21	4.28	4.56	4.77	4.85	5.01	5.29	5.57	5.86	6.13	6.30	6.31	6.08	5.84	5.91	6.14	6.34	6.48	6.50	6.43	6.33	6.19	6.01	5.86	5.81	5.74	5.59	5.53	5.55	5.35	5.14	5.32	5.53	5.13	4.62	4.53	4.31	4.64	4.90	4.43	5.13	5.75	4.88	4.09	4.19	4.86	5.35	5.22	4.75	4.42	4.55	4.78	4.65	4.64	5.03	5.51	5.54	5.03	4.93	4.92	4.67	4.41	3.97	3.61	3.23	3.65	3.99	3.77	3.77	
2.94	3.22	3.35	3.40	3.83	3.92	3.74	3.45	3.01	2.85	2.66	2.52	2.21	2.10	2.36	2.80	3.33	2.92	2.63	3.01	3.22	2.94	2.80	3.03	2.92	2.87	2.99	3.14	3.13	3.02	3.05	3.01	3.02	3.32	3.38	3.09	2.92	3.03	2.79	2.77	3.14	3.19	3.12	2.96	3.23	3.73	3.67	3.39	3.35	3.65	3.58	3.52	3.98	4.24	4.20	4.00	3.94	4.34	4.55	4.45	4.55	4.73	4.90	5.02	5.18	5.49	5.82	6.15	6.54	6.87	6.91	6.62	6.29	6.31	6.65	6.89	6.96	6.92	6.66	6.43	6.24	6.11	5.97	5.80	5.73	5.59	5.61	5.68	5.59	5.27	5.06	5.36	5.39	4.73	4.45	4.10	4.17	4.81	4.34	4.62	5.71	5.47	4.40	4.03	4.58	5.30	5.62	5.45	5.12	5.15	5.11	4.94	4.88	4.70	5.07	5.66	5.51	5.43	5.46	5.36	4.97	4.17	3.74	3.40	3.56	3.90	3.78	3.78	
2.76	3.08	3.02	2.88	3.47	3.93	4.15	4.04	3.46	3.26	3.08	2.76	2.42	2.00	2.01	2.44	3.05	2.93	2.78	2.96	3.24	3.13	2.78	2.90	2.83	2.83	2.92	2.98	3.17	3.15	3.29	3.26	2.99	3.19	3.25	3.06	2.94	2.93	2.78	2.70	3.05	3.21	3.04	2.97	3.11	3.55	3.72	3.47	3.28	3.42	3.53	3.56	3.93	4.10	4.12	4.12	4.06	4.32	4.53	4.58	4.71	4.88	5.05	5.21	5.35	5.59	5.94	6.26	6.73	7.29	7.48	7.26	7.12	7.12	7.36	7.48	7.35	7.31	7.04	6.53	6.21	6.10	6.19	6.02	5.65	5.39	5.71	5.90	5.83	5.79	5.46	5.46	5.65	5.34	5.02	4.75	4.48	5.15	5.07	4.56	5.22	5.68	5.17	4.65	4.48	4.70	5.12	5.31	5.19	5.27	5.29	4.88	4.78	4.50	4.53	5.03	5.13	5.43	5.68	5.83	5.96	5.16	4.16	3.70	3.57	3.74	3.81	3.81	
2.43	2.94	2.97	2.57	2.84	3.26	3.71	4.01	3.81	3.71	3.50	3.21	3.05	2.49	2.14	2.25	2.67	2.81	2.79	2.80	3.04	3.14	2.85	2.81	2.76	2.79	2.90	2.83	2.90	2.95	3.21	3.45	3.20	3.23	3.19	2.98	2.97	2.93	2.77	2.64	2.90	3.19	3.04	2.97	3.03	3.39	3.68	3.57	3.41	3.29	3.30	3.47	3.89	4.00	4.01	4.13	4.20	4.37	4.54	4.64	4.80	5.01	5.20	5.42	5.59	5.66	5.99	6.37	6.80	7.49	7.71	7.56	8.98	7.96	7.98	8.10	7.59	7.49	7.55	7.04	6.43	5.66	5.66	6.12	5.57	4.94	5.47	6.14	6.29	6.29	6.38	6.37	6.12	5.93	5.85	5.74	5.35	5.41	5.69	5.33	5.21	5.40	5.26	5.07	4.81	4.54	4.54	4.65	4.56	4.68	5.00	4.77	4.46	4.19	4.22	4.48	4.45	4.68	5.08	5.35	5.92	6.00	5.10	4.31	3.98	3.87	3.87	3.87	
2.36	2.76	2.97	2.74	2.80	2.98	3.23	3.36	3.36	3.70	3.56	3.07	3.13	2.95	2.49	2.33	2.50	2.77	2.83	2.79	2.88	2.96	2.78	2.67	2.73	2.73	2.91	2.88	2.77	2.79	2.94	3.33	3.34	3.28	3.25	2.98	2.92	2.95	2.83	2.64	2.71	3.06	3.11	2.94	2.95	3.30	3.55	3.52	3.53	3.45	3.27	3.36	3.76	3.89	3.94	4.10	4.26	4.41	4.58	4.72	4.89	5.12	5.32	5.61	5.94	5.85	6.07	6.50	6.84	7.60	7.62	7.02	7.30	7.30	7.62	8.40	7.78	7.26	7.59	7.70	7.34	5.95	5.35	6.20	6.15	5.12	4.96	5.57	5.96	5.86	5.96	6.33	5.95	5.39	5.25	5.24	5.05	4.92	5.17	5.22	5.13	5.09	4.96	4.88	4.91	4.73	4.55	4.44	4.36	4.50	4.73	4.78	4.51	4.08	4.01	4.11	4.14	4.15	4.41	4.76	5.09	5.79	5.83	5.10	4.70	4.37	4.05	4.05	
2.40	2.67	2.93	2.91	2.92	3.15	3.43	3.07	2.78	3.45	3.67	2.96	2.81	2.99	2.70	2.43	2.45	2.70	2.89	2.92	2.97	2.98	2.79	2.57	2.60	2.68	2.84	2.93	2.82	2.76	2.87	3.16	3.15	3.18	3.31	3.06	2.91	2.94	2.86	2.76	2.62	2.77	3.09	2.97	2.84	3.21	3.43	3.37	3.44	3.53	3.44	3.42	3.64	3.80	3.91	4.07	4.27	4.44	4.61	4.77	4.97	5.21	5.44	5.65	6.20	6.17	6.12	6.63	7.05	7.75	7.63	6.64	6.62	6.71	6.41	7.76	8.07	7.10	7.02	7.59	7.96	7.28	6.39	6.16	6.29	5.62	4.80	4.84	5.06	4.99	5.09	5.70	5.75	5.25	4.97	4.93	4.81	4.79	4.83	4.78	4.75	4.77	4.77	4.73	4.74	4.62	4.54	4.37	4.30	4.51	4.62	4.74	4.68	4.35	4.15	4.01	4.04	4.00	4.11	4.42	4.43	4.88	5.42	5.15	4.88	4.85	4.71	4.71	
2.37	2.60	2.94	2.88	2.69	3.00	3.67	3.29	2.60	3.20	3.71	3.29	2.94	2.92	2.76	2.50	2.42	2.58	2.82	2.91	2.98	3.04	2.93	2.66	2.48	2.52	2.63	2.77	2.83	2.75	2.89	3.13	2.88	2.86	3.22	3.14	2.93	2.85	2.76	2.81	2.77	2.58	2.85	3.03	2.76	3.06	3.34	3.27	3.29	3.41	3.49	3.52	3.63	3.77	3.90	4.06	4.26	4.44	4.63	4.79	5.00	5.30	5.56	5.61	6.28	6.78	6.40	6.57	7.40	7.99	7.53	6.04	6.06	6.67	5.58	6.33	7.90	7.62	6.83	6.90	7.26	7.20	6.86	6.13	5.84	5.60	5.09	4.98	5.02	4.91	5.10	5.43	5.55	5.52	5.13	4.94	4.87	4.86	4.89	4.79	4.61	4.51	4.53	4.68	4.85	4.75	4.75	4.63	4.45	4.51	4.70	4.79	4.69	4.46	4.28	4.06	3.94	3.95	3.98	4.11	4.07	4.21	4.56	4.57	4.40	4.75	5.18	5.18	
2.21	2.44	2.97	2.90	2.58	2.81	3.45	3.40	2.72	3.00	3.40	3.24	3.20	3.04	2.86	2.60	2.38	2.49	2.71	2.85	2.88	2.90	2.89	2.76	2.60	2.53	2.48	2.51	2.74	2.80	2.89	3.11	2.88	2.64	2.93	3.19	3.09	2.81	2.63	2.70	2.91	2.67	2.58	2.96	2.86	2.91	3.17	3.19	3.21	3.30	3.41	3.51	3.67	3.91	3.84	3.97	4.21	4.47	4.62	4.74	5.04	5.41	5.82	5.73	6.16	7.47	7.53	7.59	9.94	9.87	8.11	6.03	5.50	6.36	5.58	5.20	6.56	7.59	7.23	6.80	6.63	6.70	6.86	6.44	6.07	5.72	5.36	5.29	5.30	5.17	5.23	5.34	5.26	5.35	5.23	5.07	5.01	4.93	5.02	5.14	4.99	4.83	4.66	4.71	5.06	5.25	5.27	5.23	5.10	4.85	4.94	5.11	4.99	4.69	4.48	4.27	3.95	3.90	3.95	4.00	4.01	4.09	4.21	4.33	4.20	4.49	5.08	5.08	
2.09	2.27	2.88	2.98	2.78	3.01	3.33	3.21	2.82	2.99	3.04	2.93	3.12	3.04	2.93	2.76	2.41	2.44	2.67	2.88	2.97	2.87	2.78	2.74	2.71	2.72	2.52	2.37	2.63	2.75	2.80	2.97	2.88	2.61	2.63	3.01	3.16	2.84	2.58	2.54	2.81	2.84	2.51	2.70	2.90	2.87	3.01	3.10	3.12	3.20	3.30	3.40	3.51	3.62	3.65	3.75	4.01	4.54	4.70	4.64	5.03	5.43	6.08	6.17	6.10	7.57	8.70	9.34	11.17	10.01	8.16	6.85	5.64	5.64	5.46	4.85	5.10	6.32	7.04	7.01	6.47	6.32	6.59	6.37	6.19	5.98	5.57	5.31	5.15	5.09	5.15	5.24	5.24	5.11	4.99	5.12	5.31	5.17	5.10	5.28	5.26	5.18	4.96	4.63	4.58	4.78	4.95	5.02	5.16	5.08	5.03	5.25	5.37	5.20	5.05	4.86	4.38	3.99	3.91	3.99	3.98	4.06	4.14	4.20	4.17	4.43	4.81	4.81	
2.30	2.28	2.56	2.77	2.83	3.09	3.49	3.30	2.82	3.01	2.88	2.73	3.04	2.94	2.78	2.79	2.53	2.42	2.61	2.83	2.99	2.93	2.72	2.67	2.67	2.70	2.50	2.35	2.65	2.63	2.69	2.88	2.76	2.55	2.50	2.79	3.02	2.83	2.68	2.50	2.58	2.87	2.58	2.52	2.78	2.81	2.89	2.98	3.01	3.07	3.16	3.22	3.24	3.30	3.37	3.49	3.63	4.24	4.73	4.47	4.78	5.14	5.73	6.24	6.08	6.81	7.86	8.36	8.16	7.08	6.38	6.20	5.48	4.86	4.86	4.85	4.87	5.48	6.30	6.69	6.29	5.88	6.04	6.02	5.79	5.70	5.53	5.31	5.11	5.02	5.07	5.09	5.20	5.13	4.70	4.58	4.96	4.98	4.87	4.97	4.95	4.88	4.82	4.62	4.40	4.31	4.41	4.48	4.53	4.76	4.76	4.88	5.12	5.08	5.15	5.21	5.08	4.54	4.08	4.07	3.96	3.91	4.07	4.27	4.29	4.41	4.56	4.56	
2.57	2.47	2.43	2.48	2.65	2.89	3.49	3.55	2.88	2.97	2.88	2.64	2.92	2.96	2.68	2.61	2.56	2.43	2.56	2.74	2.82	2.94	2.73	2.59	2.71	2.64	2.43	2.37	2.64	2.56	2.53	2.84	2.74	2.49	2.47	2.65	2.77	2.71	2.75	2.58	2.42	2.71	2.63	2.48	2.63	2.69	2.76	2.85	2.89	2.93	2.98	3.01	2.98	3.05	3.12	3.25	3.31	3.70	4.41	4.30	4.51	4.79	5.06	5.48	5.36	5.63	6.34	6.67	6.31	5.87	5.51	5.32	5.17	4.60	4.37	4.62	5.04	5.58	5.99	6.00	5.76	5.53	5.48	5.61	5.47	5.31	5.31	5.23	5.12	5.04	5.04	5.01	5.00	5.11	4.81	4.42	4.57	4.60	4.60	4.77	4.80	4.64	4.54	4.65	4.58	4.38	4.36	4.36	4.22	4.37	4.44	4.52	4.79	4.76	4.84	4.95	5.15	4.92	4.48	4.43	4.38	4.06	3.95	4.32	4.51	4.52	4.52	4.52	
2.70	2.64	2.55	2.45	2.42	2.58	3.33	3.70	3.11	2.91	2.90	2.70	2.73	2.83	2.65	2.52	2.49	2.47	2.59	2.71	2.63	2.84	2.77	2.41	2.67	2.64	2.53	2.48	2.54	2.51	2.40	2.71	2.67	2.48	2.52	2.53	2.49	2.56	2.62	2.63	2.47	2.46	2.53	2.45	2.50	2.57	2.61	2.69	2.73	2.77	2.78	2.79	2.70	2.74	2.92	3.00	3.03	3.41	3.90	3.91	4.20	4.47	4.60	4.80	4.56	4.69	5.32	5.74	5.59	5.41	5.36	5.04	4.83	4.60	4.30	4.36	4.98	6.31	6.41	5.46	5.14	5.12	5.13	5.25	5.30	5.17	5.15	5.13	5.03	4.96	5.01	5.01	4.94	4.95	4.84	4.60	4.50	4.42	4.40	4.54	4.69	4.58	4.42	4.54	4.60	4.46	4.38	4.35	4.22	4.30	4.36	4.33	4.59	4.64	4.61	4.84	5.07	4.94	4.71	4.64	4.76	4.52	4.05	4.19	4.44	4.63	4.78	4.78	
2.75	2.70	2.65	2.56	2.37	2.31	2.91	3.65	3.46	2.99	2.89	2.83	2.75	2.65	2.50	2.49	2.47	2.47	2.63	2.78	2.58	2.72	2.71	2.29	2.51	2.54	2.57	2.58	2.49	2.39	2.35	2.63	2.52	2.41	2.57	2.50	2.32	2.44	2.43	2.50	2.54	2.34	2.36	2.37	2.38	2.44	2.46	2.51	2.57	2.59	2.58	2.57	2.42	2.38	2.69	2.77	2.68	2.96	3.33	3.33	3.65	4.00	4.00	4.23	4.01	3.90	4.40	4.77	4.87	4.86	4.93	4.72	4.30	4.18	4.20	4.40	5.00	5.83	5.78	5.15	4.86	4.84	5.00	5.04	5.09	5.09	5.03	5.04	5.01	4.91	4.91	4.91	4.90	4.88	4.75	4.71	4.58	4.42	4.36	4.44	4.60	4.53	4.41	4.42	4.50	4.52	4.44	4.37	4.23	4.28	4.35	4.27	4.47	4.57	4.38	4.65	5.02	4.95	4.71	4.44	4.53	4.57	4.25	4.22	4.25	4.37	4.61	4.61	
2.78	2.75	2.70	2.64	2.49	2.30	2.50	3.20	3.60	3.34	3.05	2.90	2.87	2.68	2.42	2.45	2.49	2.44	2.58	2.86	2.73	2.71	2.57	2.26	2.44	2.51	2.44	2.58	2.56	2.24	2.24	2.57	2.46	2.30	2.50	2.47	2.25	2.31	2.33	2.34	2.40	2.28	2.23	2.25	2.25	2.28	2.30	2.33	2.38	2.40	2.38	2.38	2.19	2.05	2.36	2.57	2.56	2.55	2.83	3.04	3.21	3.48	3.30	3.33	3.34	3.29	3.68	4.11	4.33	4.41	4.47	4.24	3.86	3.81	4.06	4.58	5.16	5.60	5.60	5.27	4.99	4.81	4.93	5.01	5.00	5.04	4.98	4.97	4.97	4.93	4.91	4.79	4.81	4.85	4.68	4.68	4.65	4.49	4.40	4.45	4.58	4.53	4.50	4.42	4.38	4.42	4.42	4.36	4.20	4.22	4.23	4.19	4.38	4.52	4.33	4.28	4.47	4.65	4.65	4.39	4.30	4.33	4.30	4.35	4.40	4.35	4.29	4.29	
2.79	2.77	2.73	2.69	2.60	2.43	2.34	2.65	3.17	3.45	3.34	2.99	2.87	2.76	2.50	2.45	2.51	2.45	2.48	2.78	2.91	2.74	2.44	2.24	2.45	2.58	2.28	2.48	2.65	2.27	2.14	2.43	2.44	2.29	2.41	2.36	2.21	2.20	2.24	2.24	2.22	2.16	2.12	2.11	2.11	2.11	2.12	2.13	2.16	2.19	2.17	2.23	2.12	1.86	1.95	2.20	2.36	2.29	2.41	2.68	2.76	2.84	2.40	2.28	2.74	3.06	3.31	3.56	3.73	3.80	3.85	3.75	3.70	4.06	4.36	4.88	5.40	5.57	5.52	5.40	5.25	5.05	5.01	5.05	5.03	5.03	4.96	4.94	4.93	4.95	5.05	4.95	4.85	4.93	4.80	4.69	4.71	4.56	4.40	4.45	4.56	4.51	4.53	4.53	4.38	4.33	4.40	4.37	4.24	4.25	4.14	4.09	4.23	4.37	4.43	4.33	4.27	4.43	4.61	4.54	4.33	4.14	4.22	4.46	4.61	4.64	4.57	4.57	
2.80	2.79	2.75	2.72	2.66	2.56	2.39	2.40	2.63	3.04	3.36	3.11	2.84	2.68	2.54	2.46	2.48	2.51	2.43	2.68	2.93	2.78	2.42	2.16	2.44	2.60	2.21	2.33	2.53	2.34	2.15	2.25	2.32	2.29	2.35	2.23	2.15	2.14	2.14	2.13	2.09	2.03	1.98	1.97	1.95	1.94	1.92	1.91	1.92	1.98	1.94	1.99	2.11	1.83	1.67	1.82	1.91	1.91	2.01	2.14	2.13	1.99	0.68	1.14	2.56	3.06	3.24	3.34	3.34	3.36	3.60	3.95	4.34	4.66	4.91	5.14	5.42	5.43	5.23	5.14	5.16	5.08	4.96	4.94	4.98	5.00	4.92	4.84	4.86	4.92	5.05	5.02	4.90	4.94	4.88	4.75	4.76	4.69	4.47	4.39	4.50	4.49	4.49	4.60	4.45	4.32	4.44	4.45	4.33	4.33	4.19	4.07	4.08	4.15	4.39	4.41	4.31	4.38	4.55	4.64	4.51	4.15	4.05	4.33	4.43	4.54	4.71	4.71	
2.81	2.79	2.77	2.74	2.70	2.65	2.54	2.46	2.47	2.67	3.09	3.11	2.87	2.63	2.52	2.43	2.48	2.53	2.39	2.58	2.76	2.81	2.56	2.14	2.39	2.54	2.24	2.32	2.37	2.29	2.20	2.20	2.19	2.20	2.26	2.15	2.08	2.07	2.06	2.03	1.98	1.92	1.86	1.84	1.80	1.75	1.69	1.65	1.63	1.75	1.79	1.75	1.93	1.80	1.51	1.54	1.57	1.57	1.65	1.70	1.63	1.55	1.45	1.97	2.80	3.17	3.26	3.32	3.41	3.45	3.72	4.39	4.81	4.91	5.08	5.18	5.26	5.33	5.16	5.02	5.10	5.09	5.01	4.90	4.87	4.92	4.92	4.80	4.71	4.77	4.93	4.93	4.83	4.84	4.82	4.73	4.66	4.66	4.56	4.40	4.43	4.51	4.51	4.66	4.57	4.32	4.39	4.52	4.43	4.35	4.32	4.22	4.15	4.11	4.26	4.38	4.28	4.31	4.40	4.51	4.53	4.27	4.08	4.21	4.31	4.42	4.57	4.57	
2.81	2.80	2.78	2.75	2.72	2.69	2.65	2.59	2.54	2.57	2.78	2.93	2.84	2.64	2.50	2.39	2.48	2.53	2.41	2.48	2.50	2.64	2.62	2.29	2.41	2.44	2.23	2.30	2.32	2.22	2.14	2.18	2.14	2.10	2.13	2.07	2.00	1.98	1.97	1.94	1.89	1.83	1.77	1.72	1.66	1.56	1.45	1.36	1.34	1.47	1.65	1.62	1.64	1.60	1.35	1.32	1.41	1.43	1.44	1.45	1.46	1.60	1.99	2.47	2.89	3.19	3.31	3.35	3.55	3.79	3.99	4.45	4.86	4.88	4.98	5.17	5.22	5.24	5.18	5.10	5.06	5.00	4.99	4.97	4.89	4.89	4.91	4.81	4.66	4.61	4.73	4.83	4.83	4.79	4.79	4.75	4.63	4.57	4.53	4.38	4.28	4.39	4.46	4.60	4.63	4.39	4.33	4.51	4.53	4.36	4.40	4.41	4.40	4.31	4.26	4.41	4.34	4.30	4.35	4.41	4.42	4.27	4.17	4.21	4.30	4.42	4.50	4.50	
2.81	2.80	2.78	2.76	2.74	2.71	2.69	2.66	2.64	2.62	2.65	2.72	2.73	2.63	2.50	2.40	2.44	2.47	2.44	2.43	2.38	2.44	2.45	2.35	2.42	2.38	2.22	2.21	2.25	2.18	2.07	2.09	2.08	2.03	2.00	1.96	1.92	1.90	1.88	1.85	1.81	1.76	1.71	1.64	1.53	1.39	1.25	1.13	1.11	1.21	1.37	1.38	1.29	1.28	1.21	1.25	1.37	1.43	1.44	1.46	1.55	1.79	2.18	2.56	2.87	3.14	3.28	3.35	3.52	3.77	4.06	4.36	4.68	4.84	4.92	5.08	5.13	5.10	5.05	4.99	4.96	4.84	4.79	4.92	4.93	4.90	4.89	4.76	4.65	4.57	4.55	4.62	4.73	4.74	4.75	4.77	4.69	4.59	4.55	4.38	4.07	4.09	4.19	4.37	4.51	4.41	4.33	4.40	4.51	4.43	4.40	4.41	4.45	4.38	4.25	4.36	4.37	4.30	4.31	4.35	4.36	4.27	4.21	4.22	4.26	4.37	4.44	4.44	
2.81	2.80	2.78	2.76	2.75	2.73	2.71	2.69	2.68	2.66	2.65	2.64	2.63	2.60	2.53	2.46	2.42	2.43	2.43	2.41	2.39	2.37	2.32	2.28	2.33	2.32	2.21	2.16	2.18	2.11	2.02	1.99	1.99	1.95	1.90	1.86	1.81	1.80	1.78	1.77	1.75	1.71	1.67	1.59	1.47	1.32	1.16	1.03	0.98	0.97	1.03	1.08	1.10	1.26	1.27	1.37	1.44	1.49	1.53	1.59	1.71	1.96	2.28	2.58	2.84	3.11	3.27	3.39	3.57	3.75	4.00	4.27	4.52	4.68	4.79	4.93	4.99	4.96	4.94	4.94	4.99	4.90	4.68	4.68	4.70	4.70	4.78	4.70	4.62	4.57	4.51	4.48	4.52	4.57	4.59	4.64	4.71	4.66	4.68	4.61	4.15	3.96	4.01	4.08	4.17	4.18	4.20	4.27	4.35	4.38	4.36	4.35	4.40	4.35	4.25	4.28	4.32	4.30	4.29	4.30	4.32	4.30	4.25	4.24	4.26	4.33	4.39	4.39	
2.81	2.79	2.78	2.76	2.75	2.73	2.71	2.70	2.68	2.67	2.65	2.63	2.60	2.57	2.54	2.49	2.44	2.41	2.40	2.39	2.38	2.36	2.31	2.24	2.25	2.25	2.16	2.12	2.11	2.05	1.97	1.92	1.89	1.85	1.79	1.74	1.70	1.68	1.67	1.69	1.68	1.67	1.65	1.61	1.51	1.35	1.16	0.98	0.85	0.78	0.83	0.95	1.12	1.32	1.46	1.53	1.57	1.60	1.65	1.73	1.87	2.08	2.35	2.60	2.82	3.06	3.26	3.40	3.58	3.78	3.97	4.18	4.41	4.55	4.62	4.73	4.83	4.84	4.82	4.81	4.87	4.89	4.70	4.57	4.54	4.53	4.61	4.63	4.59	4.56	4.53	4.49	4.47	4.51	4.51	4.51	4.66	4.74	4.87	4.97	4.60	4.19	4.20	4.23	4.12	4.03	4.01	4.11	4.18	4.24	4.27	4.28	4.32	4.30	4.26	4.26	4.28	4.28	4.30	4.30	4.29	4.28	4.25	4.25	4.25	4.30	4.35	4.35	
2.80	2.79	2.77	2.76	2.75	2.73	2.71	2.70	2.68	2.66	2.64	2.62	2.59	2.56	2.53	2.49	2.45	2.40	2.37	2.35	2.34	2.33	2.30	2.23	2.20	2.19	2.13	2.08	2.04	1.98	1.91	1.85	1.80	1.75	1.68	1.62	1.57	1.54	1.54	1.57	1.58	1.60	1.66	1.70	1.64	1.46	1.21	0.96	0.76	0.68	0.75	0.93	1.15	1.36	1.51	1.59	1.65	1.70	1.76	1.86	1.99	2.18	2.41	2.63	2.82	3.04	3.23	3.39	3.57	3.76	3.96	4.16	4.34	4.47	4.50	4.56	4.65	4.67	4.63	4.59	4.59	4.65	4.66	4.58	4.51	4.46	4.49	4.55	4.55	4.53	4.51	4.51	4.50	4.53	4.53	4.45	4.48	4.60	4.83	5.11	5.07	4.67	4.51	4.65	4.52	4.15	3.97	3.99	4.05	4.13	4.17	4.22	4.24	4.25	4.24	4.26	4.26	4.24	4.25	4.25	4.26	4.26	4.23	4.24	4.24	4.26	4.30	4.30	
2.79	2.78	2.77	2.76	2.74	2.73	2.71	2.69	2.67	2.65	2.63	2.61	2.58	2.55	2.52	2.49	2.45	2.41	2.36	2.33	2.30	2.29	2.27	2.22	2.16	2.13	2.09	2.04	1.98	1.92	1.85	1.78	1.72	1.64	1.56	1.48	1.42	1.38	1.36	1.37	1.39	1.47	1.64	1.80	1.79	1.59	1.27	0.94	0.70	0.61	0.69	0.90	1.11	1.31	1.47	1.59	1.69	1.77	1.86	1.97	2.10	2.26	2.46	2.65	2.84	3.02	3.18	3.34	3.52	3.70	3.87	4.05	4.24	4.40	4.46	4.50	4.55	4.58	4.53	4.47	4.44	4.42	4.47	4.52	4.49	4.41	4.41	4.48	4.49	4.50	4.48	4.46	4.45	4.50	4.53	4.46	4.39	4.35	4.46	4.73	4.90	4.71	4.46	4.61	4.74	4.35	4.02	3.94	4.01	4.12	4.15	4.19	4.21	4.22	4.22	4.24	4.24	4.22	4.22	4.23	4.23	4.24	4.23	4.22	4.21	4.19	4.17	4.17	
2.78	2.77	2.76	2.75	2.74	2.72	2.70	2.69	2.67	2.65	2.62	2.60	2.57	2.54	2.51	2.48	2.44	2.41	2.36	2.32	2.29	2.26	2.24	2.19	2.13	2.09	2.05	2.00	1.93	1.87	1.79	1.71	1.64	1.55	1.45	1.35	1.26	1.18	1.12	1.10	1.10	1.21	1.50	1.81	1.90	1.67	1.26	0.86	0.60	0.54	0.65	0.83	1.04	1.25	1.42	1.57	1.69	1.81	1.92	2.05	2.20	2.35	2.52	2.68	2.84	2.98	3.12	3.30	3.48	3.63	3.80	3.97	4.11	4.25	4.33	4.37	4.43	4.46	4.39	4.31	4.36	4.40	4.39	4.52	4.62	4.53	4.44	4.42	4.39	4.38	4.38	4.38	4.33	4.34	4.40	4.38	4.33	4.26	4.25	4.42	4.59	4.55	4.39	4.49	4.71	4.54	4.20	3.94	4.00	4.15	4.15	4.17	4.18	4.18	4.19	4.22	4.22	4.21	4.19	4.18	4.18	4.17	4.21	4.26	4.26	4.13	4.01	4.01	
2.77	2.76	2.75	2.74	2.73	2.71	2.70	2.68	2.66	2.64	2.61	2.59	2.56	2.53	2.50	2.47	2.44	2.40	2.36	2.31	2.28	2.24	2.21	2.16	2.10	2.06	2.01	1.96	1.89	1.81	1.73	1.64	1.56	1.46	1.34	1.22	1.09	0.98	0.87	0.79	0.74	0.82	1.16	1.74	1.95	1.54	1.05	0.65	0.46	0.50	0.66	0.82	0.99	1.21	1.40	1.56	1.70	1.84	1.97	2.13	2.29	2.43	2.60	2.78	2.94	3.05	3.10	3.28	3.53	3.66	3.80	3.95	4.06	4.14	4.20	4.24	4.35	4.53	4.58	4.54	4.59	4.65	4.54	4.52	4.63	4.66	4.60	4.50	4.43	4.41	4.41	4.49	4.48	4.37	4.30	4.27	4.27	4.26	4.23	4.29	4.46	4.54	4.46	4.49	4.65	4.69	4.53	4.16	4.05	4.17	4.16	4.14	4.16	4.17	4.17	4.18	4.19	4.19	4.17	4.16	4.15	4.08	4.05	4.23	4.45	4.31	4.11	4.11	
2.77	2.75	2.75	2.74	2.72	2.71	2.69	2.67	2.65	2.63	2.61	2.58	2.55	2.53	2.50	2.46	2.43	2.39	2.35	2.30	2.26	2.23	2.19	2.14	2.08	2.03	1.98	1.92	1.85	1.77	1.69	1.59	1.48	1.38	1.25	1.11	0.95	0.81	0.68	0.56	0.52	0.68	1.16	2.56	2.62	1.21	0.65	0.39	0.41	0.56	0.73	0.91	1.07	1.24	1.42	1.59	1.72	1.87	2.01	2.17	2.36	2.49	2.65	2.90	3.13	3.28	3.26	3.27	3.49	3.66	3.77	3.92	4.07	4.15	4.23	4.33	4.45	4.74	4.95	4.96	4.93	4.92	4.79	4.56	4.51	4.65	4.85	4.90	4.80	4.71	4.66	4.65	4.69	4.69	4.49	4.29	4.29	4.29	4.27	4.23	4.30	4.46	4.61	4.55	4.49	4.63	4.62	4.39	4.21	4.22	4.22	4.14	4.13	4.14	4.15	4.14	4.13	4.15	4.16	4.17	4.24	4.12	3.85	3.93	4.28	4.41	4.39	4.39	
2.76	2.75	2.74	2.73	2.71	2.70	2.68	2.66	2.64	2.62	2.60	2.57	2.55	2.52	2.49	2.45	2.42	2.38	2.34	2.30	2.25	2.22	2.17	2.12	2.06	2.01	1.96	1.89	1.82	1.73	1.65	1.55	1.43	1.31	1.18	1.02	0.86	0.72	0.60	0.56	0.71	1.04	1.52	2.20	1.92	0.94	0.52	0.49	0.60	0.72	0.85	1.01	1.16	1.31	1.47	1.64	1.78	1.91	2.05	2.18	2.39	2.52	2.60	2.81	3.06	3.30	3.36	3.32	3.42	3.58	3.70	3.87	4.09	4.19	4.28	4.38	4.38	4.43	4.57	4.66	4.74	4.83	4.93	4.86	4.65	4.63	4.75	4.92	4.90	4.73	4.65	4.56	4.54	4.69	4.64	4.41	4.35	4.30	4.19	4.14	4.12	4.19	4.48	4.54	4.32	4.35	4.41	4.32	4.26	4.26	4.27	4.21	4.15	4.11	4.09	4.11	4.07	4.04	4.04	4.05	4.30	4.35	3.88	3.76	3.91	4.06	4.24	4.24	
2.75	2.74	2.73	2.72	2.71	2.69	2.68	2.66	2.64	2.62	2.59	2.57	2.54	2.51	2.48	2.45	2.41	2.38	2.34	2.29	2.24	2.21	2.17	2.11	2.05	1.99	1.94	1.87	1.80	1.71	1.62	1.52	1.39	1.27	1.14	0.98	0.84	0.71	0.65	0.73	0.99	1.36	1.75	1.95	1.71	1.25	0.94	0.86	0.89	0.94	1.02	1.14	1.27	1.39	1.52	1.69	1.85	1.98	2.09	2.17	2.35	2.50	2.57	2.71	2.90	3.11	3.25	3.31	3.40	3.54	3.63	3.75	3.98	4.11	4.13	4.12	4.09	4.06	4.10	4.17	4.27	4.34	4.50	4.69	4.58	4.39	4.31	4.38	4.47	4.45	4.42	4.43	4.42	4.44	4.48	4.41	4.40	4.41	4.17	3.98	4.00	4.04	4.19	4.33	4.29	4.25	4.25	4.20	4.16	4.20	4.25	4.28	4.27	4.24	4.15	4.13	4.14	4.02	3.92	3.83	4.08	4.39	4.00	3.85	4.02	3.91	3.88	3.88	
2.74	2.73	2.72	2.72	2.70	2.69	2.67	2.65	2.63	2.61	2.59	2.56	2.53	2.50	2.47	2.44	2.41	2.37	2.33	2.29	2.24	2.20	2.16	2.10	2.04	1.98	1.92	1.86	1.78	1.69	1.60	1.50	1.38	1.26	1.12	0.98	0.86	0.77	0.76	0.90	1.16	1.50	1.79	1.91	1.80	1.52	1.28	1.19	1.16	1.15	1.19	1.28	1.39	1.48	1.57	1.72	1.89	2.06	2.14	2.18	2.33	2.49	2.60	2.73	2.89	3.04	3.16	3.26	3.35	3.49	3.58	3.60	3.71	3.81	3.87	3.92	3.94	3.93	3.92	3.95	4.01	4.01	3.98	4.10	4.18	4.13	4.14	4.20	4.21	4.28	4.24	4.18	4.24	4.25	4.22	4.23	4.38	4.53	4.46	4.17	4.09	4.13	4.17	4.21	4.24	4.32	4.33	4.21	4.13	4.10	4.13	4.25	4.32	4.38	4.37	4.26	4.24	4.09	3.86	3.78	3.94	4.28	4.10	3.92	4.20	4.06	3.74	3.74	
2.74	2.72	2.72	2.71	2.70	2.68	2.67	2.65	2.63	2.60	2.58	2.55	2.53	2.50	2.47	2.44	2.40	2.36	2.33	2.28	2.23	2.19	2.15	2.10	2.04	1.98	1.92	1.85	1.78	1.69	1.59	1.49	1.38	1.27	1.14	1.02	0.92	0.86	0.88	1.00	1.23	1.49	1.71	1.81	1.76	1.61	1.47	1.40	1.36	1.33	1.34	1.42	1.52	1.59	1.66	1.77	1.92	2.09	2.18	2.25	2.37	2.51	2.63	2.76	2.90	3.03	3.14	3.23	3.29	3.38	3.51	3.56	3.60	3.67	3.73	3.82	3.90	3.91	3.89	3.89	3.92	3.96	3.96	3.94	3.95	3.95	4.02	4.13	4.07	4.15	4.26	4.20	4.20	4.32	4.30	4.22	4.36	4.46	4.49	4.41	4.34	4.21	4.20	4.25	4.16	4.27	4.44	4.38	4.22	4.15	4.11	4.14	4.15	4.18	4.39	4.45	4.38	4.19	3.83	3.74	3.94	4.17	4.16	3.93	4.07	4.01	3.69	3.69	
2.73	2.72	2.71	2.70	2.69	2.68	2.66	2.64	2.62	2.60	2.58	2.55	2.52	2.50	2.46	2.43	2.40	2.36	2.32	2.28	2.23	2.19	2.15	2.10	2.04	1.98	1.91	1.84	1.79	1.71	1.60	1.50	1.40	1.29	1.18	1.08	1.00	0.95	0.97	1.08	1.25	1.44	1.60	1.69	1.69	1.62	1.55	1.52	1.48	1.46	1.45	1.53	1.66	1.72	1.76	1.87	2.00	2.10	2.21	2.32	2.42	2.55	2.66	2.78	2.90	3.01	3.10	3.20	3.27	3.33	3.46	3.54	3.61	3.70	3.73	3.76	3.83	3.86	3.80	3.82	3.84	3.86	3.98	4.03	3.86	3.81	3.95	4.13	4.03	4.02	4.31	4.41	4.41	4.51	4.55	4.46	4.43	4.43	4.33	4.40	4.60	4.33	4.08	4.16	4.12	4.12	4.33	4.49	4.29	4.12	4.17	4.26	4.16	4.06	4.31	4.56	4.56	4.36	3.99	3.75	3.90	4.01	4.06	4.04	4.08	4.05	3.85	3.85	
2.73	2.71	2.71	2.70	2.69	2.67	2.66	2.64	2.62	2.60	2.57	2.55	2.52	2.49	2.46	2.43	2.40	2.36	2.32	2.28	2.23	2.19	2.15	2.10	2.04	1.98	1.92	1.85	1.79	1.72	1.63	1.53	1.43	1.34	1.24	1.15	1.08	1.05	1.07	1.14	1.26	1.40	1.52	1.59	1.62	1.61	1.59	1.58	1.57	1.55	1.54	1.60	1.76	1.83	1.86	1.96	2.09	2.16	2.25	2.37	2.47	2.58	2.68	2.79	2.90	3.01	3.09	3.19	3.27	3.35	3.50	3.54	3.62	3.74	3.83	3.82	3.86	3.89	3.74	3.69	3.72	3.74	3.88	4.20	4.07	3.79	3.87	4.20	4.28	4.12	4.27	4.26	4.22	4.26	4.33	4.45	4.52	4.55	4.36	4.32	4.68	4.68	4.25	4.10	4.12	4.06	4.08	4.37	4.32	4.07	4.11	4.33	4.18	3.97	4.29	4.63	4.69	4.44	4.12	3.78	3.88	4.02	4.00	4.10	4.18	4.18	4.10	4.10	
2.72	2.71	2.70	2.70	2.68	2.67	2.65	2.64	2.62	2.59	2.57	2.55	2.52	2.49	2.46	2.43	2.40	2.36	2.32	2.28	2.23	2.19	2.15	2.11	2.06	1.99	1.93	1.87	1.80	1.73	1.65	1.56	1.48	1.39	1.31	1.23	1.18	1.15	1.15	1.20	1.28	1.38	1.47	1.54	1.58	1.60	1.61	1.62	1.63	1.63	1.63	1.68	1.80	1.89	1.94	2.02	2.13	2.22	2.30	2.41	2.51	2.61	2.70	2.81	2.90	3.00	3.08	3.16	3.24	3.32	3.48	3.54	3.57	3.71	3.90	3.91	3.99	4.05	3.92	3.82	3.73	3.78	3.82	4.20	4.43	4.19	3.98	4.16	4.36	4.22	4.29	4.24	4.08	4.07	4.12	4.24	4.39	4.56	4.49	4.39	4.61	4.89	4.75	4.44	4.36	4.31	4.18	4.29	4.25	4.05	4.04	4.20	4.08	3.69	4.03	4.58	4.81	4.71	4.39	4.04	3.97	4.14	4.05	3.90	4.03	4.25	4.31	4.31	
2.72	2.71	2.70	2.69	2.68	2.67	2.65	2.63	2.61	2.59	2.57	2.54	2.52	2.49	2.46	2.43	2.40	2.36	2.32	2.28	2.24	2.19	2.15	2.11	2.07	2.01	1.95	1.89	1.82	1.75	1.68	1.61	1.53	1.46	1.38	1.32	1.27	1.24	1.24	1.27	1.32	1.39	1.46	1.52	1.57	1.60	1.63	1.66	1.68	1.70	1.73	1.77	1.85	1.93	2.01	2.08	2.17	2.26	2.34	2.44	2.55	2.64	2.73	2.83	2.90	2.99	3.08	3.15	3.22	3.27	3.37	3.47	3.48	3.65	3.94	4.01	4.24	4.35	4.23	4.16	4.05	4.00	3.93	4.04	4.29	4.42	4.21	4.06	4.13	4.08	4.19	4.30	4.17	4.07	4.06	4.12	4.19	4.33	4.39	4.34	4.36	4.56	4.70	4.56	4.51	4.57	4.53	4.57	4.40	4.13	4.16	4.20	4.03	3.52	3.52	4.02	4.41	4.66	4.60	4.46	4.37	4.41	4.32	3.91	3.85	4.23	4.46	4.46	
2.71	2.70	2.70	2.69	2.68	2.67	2.65	2.63	2.61	2.59	2.57	2.55	2.52	2.49	2.46	2.43	2.40	2.37	2.33	2.29	2.25	2.20	2.16	2.12	2.08	2.03	1.97	1.91	1.85	1.79	1.72	1.65	1.59	1.52	1.46	1.40	1.36	1.34	1.33	1.35	1.39	1.43	1.49	1.54	1.58	1.63	1.66	1.70	1.73	1.77	1.81	1.86	1.92	1.99	2.06	2.13	2.21	2.30	2.38	2.46	2.56	2.67	2.76	2.85	2.91	2.98	3.07	3.16	3.22	3.28	3.34	3.43	3.36	3.40	3.76	3.90	4.13	4.45	4.43	4.16	4.02	3.95	3.85	3.79	3.80	4.01	4.00	3.89	3.91	3.93	3.95	4.07	4.11	4.05	3.99	3.98	4.05	4.10	4.14	4.17	4.18	4.27	4.36	4.30	4.21	4.28	4.41	4.59	4.66	4.56	4.59	4.58	4.31	3.85	3.64	3.77	4.03	4.29	4.26	4.08	4.14	4.35	4.46	4.15	3.79	4.11	4.48	4.48	
2.71	2.70	2.70	2.69	2.68	2.67	2.65	2.63	2.61	2.59	2.57	2.55	2.52	2.49	2.47	2.44	2.40	2.37	2.34	2.30	2.26	2.22	2.17	2.12	2.09	2.05	1.99	1.93	1.88	1.82	1.76	1.70	1.64	1.58	1.53	1.49	1.45	1.43	1.42	1.43	1.46	1.49	1.54	1.58	1.62	1.67	1.71	1.75	1.79	1.83	1.87	1.92	1.98	2.04	2.11	2.18	2.26	2.33	2.41	2.49	2.57	2.67	2.76	2.86	2.93	2.99	3.07	3.17	3.23	3.29	3.32	3.42	3.39	3.19	3.30	3.46	3.56	3.95	4.29	3.99	3.77	3.74	3.67	3.52	3.56	3.93	4.15	4.10	3.91	3.93	3.91	3.89	3.97	3.99	3.98	3.93	3.98	4.04	4.05	4.09	4.12	4.18	4.18	4.18	4.04	3.89	3.98	4.11	4.17	4.23	4.38	4.56	4.58	4.43	4.27	4.10	4.09	4.33	4.34	3.97	3.86	4.01	4.20	4.26	3.87	3.98	4.37	4.37	
2.71	2.70	2.70	2.69	2.68	2.67	2.65	2.63	2.62	2.59	2.57	2.55	2.52	2.50	2.47	2.44	2.41	2.38	2.34	2.31	2.27	2.23	2.19	2.14	2.11	2.08	2.02	1.96	1.91	1.86	1.80	1.75	1.70	1.65	1.61	1.57	1.54	1.52	1.51	1.52	1.53	1.56	1.59	1.63	1.67	1.72	1.76	1.80	1.84	1.88	1.93	1.98	2.04	2.10	2.16	2.23	2.30	2.37	2.45	2.53	2.60	2.68	2.77	2.86	2.93	3.01	3.07	3.17	3.23	3.31	3.33	3.35	3.44	3.34	3.25	3.27	3.25	3.60	4.12	3.94	3.68	3.74	3.85	3.71	3.49	3.65	4.06	4.30	4.18	4.13	4.06	3.96	3.93	3.94	3.94	3.94	3.98	4.01	4.04	4.05	4.12	4.16	4.10	4.26	4.31	4.07	4.01	4.13	4.13	4.11	4.19	4.28	4.38	4.40	4.31	4.14	3.96	4.16	4.46	4.33	4.12	4.00	4.00	4.30	4.16	4.05	4.28	4.28	
2.71	2.70	2.70	2.69	2.68	2.67	2.65	2.64	2.62	2.60	2.58	2.55	2.53	2.50	2.48	2.45	2.42	2.39	2.35	2.32	2.28	2.24	2.21	2.16	2.12	2.10	2.05	1.99	1.95	1.90	1.85	1.80	1.76	1.71	1.68	1.65	1.62	1.60	1.59	1.60	1.61	1.63	1.66	1.70	1.73	1.77	1.81	1.85	1.89	1.94	1.98	2.04	2.09	2.15	2.21	2.27	2.34	2.41	2.48	2.56	2.63	2.71	2.79	2.86	2.93	3.01	3.07	3.18	3.24	3.31	3.39	3.34	3.30	3.31	3.40	3.43	3.30	3.46	4.08	4.12	3.72	3.72	3.84	3.89	3.68	3.39	3.58	3.95	4.11	4.18	4.14	4.07	4.00	3.99	3.95	3.92	3.98	4.03	4.07	4.02	4.15	4.21	4.04	4.19	4.39	4.38	4.27	4.34	4.48	4.55	4.64	4.64	4.59	4.50	4.28	4.00	3.88	3.94	4.12	4.20	4.21	3.99	3.70	4.00	4.22	4.12	4.16	4.16	
2.71	2.70	2.70	2.69	2.68	2.67	2.65	2.64	2.62	2.60	2.58	2.56	2.53	2.51	2.48	2.45	2.43	2.40	2.36	2.33	2.30	2.26	2.22	2.18	2.14	2.12	2.08	2.02	1.98	1.95	1.90	1.86	1.82	1.77	1.75	1.72	1.69	1.68	1.67	1.68	1.69	1.71	1.73	1.76	1.79	1.83	1.87	1.91	1.95	1.99	2.04	2.09	2.14	2.20	2.26	2.32	2.38	2.44	2.51	2.58	2.65	2.73	2.81	2.87	2.94	3.01	3.04	3.12	3.19	3.32	3.58	3.62	3.26	2.89	3.00	3.40	3.45	3.31	3.83	4.28	4.04	3.90	3.86	3.89	3.93	3.70	3.59	3.72	3.87	4.02	4.11	4.06	3.97	3.97	3.95	3.92	3.93	4.01	4.11	4.09	4.26	4.29	3.97	3.89	4.03	4.15	4.06	3.99	3.97	3.98	4.17	4.33	4.58	4.82	4.72	4.14	3.86	4.09	4.15	3.98	4.26	4.19	3.51	3.57	4.10	4.13	3.94	3.94	
2.71	2.70	2.70	2.69	2.68	2.67	2.66	2.64	2.62	2.60	2.58	2.56	2.54	2.51	2.49	2.46	2.44	2.41	2.38	2.35	2.31	2.28	2.24	2.20	2.16	2.14	2.12	2.06	2.01	1.98	1.95	1.91	1.87	1.84	1.81	1.79	1.77	1.76	1.75	1.75	1.76	1.78	1.80	1.83	1.86	1.89	1.92	1.96	2.00	2.05	2.09	2.14	2.19	2.24	2.30	2.36	2.41	2.47	2.54	2.61	2.67	2.74	2.82	2.88	2.95	3.07	3.11	3.05	3.08	3.18	3.72	4.27	3.89	3.09	2.80	3.23	3.45	3.13	3.39	3.90	4.00	3.98	3.93	3.89	3.91	3.86	3.72	3.71	3.78	3.86	4.02	4.06	3.94	3.91	3.92	3.92	3.91	3.93	3.98	4.00	4.25	4.42	4.10	3.78	3.86	3.95	3.79	3.74	3.67	3.63	3.67	3.70	3.93	4.35	4.82	4.57	3.95	4.12	4.40	4.00	4.17	4.54	3.88	3.52	4.07	4.26	4.04	4.04	
2.71	2.70	2.70	2.69	2.68	2.67	2.66	2.65	2.63	2.61	2.59	2.57	2.55	2.52	2.50	2.47	2.45	2.42	2.39	2.36	2.33	2.30	2.26	2.23	2.18	2.16	2.15	2.10	2.05	2.02	1.99	1.96	1.93	1.90	1.87	1.85	1.84	1.83	1.83	1.83	1.83	1.85	1.86	1.89	1.92	1.95	1.98	2.02	2.06	2.10	2.14	2.19	2.23	2.29	2.34	2.39	2.44	2.50	2.57	2.63	2.69	2.76	2.83	2.89	2.93	3.05	3.24	3.10	3.00	2.80	3.07	4.11	4.47	4.21	3.67	3.60	3.64	3.26	3.31	3.57	3.71	3.78	3.81	3.82	3.82	3.80	3.74	3.68	3.68	3.69	3.82	4.01	3.98	3.89	3.88	3.88	3.90	3.91	3.88	3.80	4.01	4.39	4.22	3.84	3.87	4.05	3.94	3.72	3.61	3.68	3.71	3.56	3.61	3.75	4.20	4.49	4.09	4.05	4.37	4.07	3.95	4.42	4.09	3.61	3.97	4.28	4.25	4.25	
2.71	2.70	2.70	2.70	2.69	2.68	2.66	2.65	2.63	2.61	2.60	2.58	2.55	2.53	2.51	2.48	2.46	2.43	2.40	2.38	2.35	2.32	2.28	2.25	2.21	2.18	2.18	2.14	2.09	2.06	2.04	2.01	1.98	1.96	1.93	1.91	1.90	1.89	1.89	1.90	1.90	1.91	1.93	1.95	1.98	2.01	2.04	2.07	2.11	2.15	2.19	2.23	2.28	2.33	2.38	2.43	2.48	2.53	2.59	2.65	2.71	2.79	2.85	2.88	2.91	2.97	3.22	3.23	3.02	2.62	2.43	3.03	3.70	4.09	4.03	3.94	3.85	3.53	3.45	3.55	3.64	3.68	3.71	3.73	3.76	3.73	3.70	3.69	3.67	3.63	3.65	3.81	3.88	3.83	3.81	3.79	3.80	3.84	3.91	3.89	3.99	4.31	4.16	3.89	3.90	4.06	4.30	4.04	3.55	3.61	3.85	3.69	3.57	3.68	3.88	4.15	4.06	4.07	4.37	4.12	3.89	4.23	4.02	3.59	3.83	4.20	4.30	4.30	
2.71	2.70	2.70	2.70	2.69	2.68	2.67	2.65	2.64	2.62	2.60	2.58	2.56	2.54	2.52	2.49	2.47	2.44	2.42	2.39	2.36	2.34	2.31	2.28	2.24	2.20	2.20	2.18	2.13	2.10	2.08	2.05	2.03	2.01	1.99	1.97	1.96	1.96	1.96	1.96	1.97	1.98	1.99	2.01	2.04	2.06	2.09	2.12	2.16	2.20	2.24	2.28	2.32	2.36	2.42	2.47	2.51	2.55	2.61	2.67	2.72	2.81	2.92	2.94	2.98	3.01	3.16	3.35	3.22	2.77	2.57	2.90	3.17	3.40	3.60	3.80	3.81	3.57	3.54	3.62	3.65	3.67	3.71	3.69	3.73	3.74	3.67	3.68	3.67	3.62	3.59	3.63	3.74	3.76	3.70	3.70	3.69	3.64	3.70	3.82	4.06	4.39	4.21	3.91	3.93	3.93	4.31	4.42	3.76	3.58	3.90	3.87	3.59	3.63	3.84	4.04	3.99	3.99	4.53	4.41	3.88	4.18	3.98	3.42	3.64	4.08	4.23	4.23	
2.72	2.71	2.71	2.70	2.70	2.69	2.67	2.66	2.65	2.63	2.61	2.59	2.57	2.55	2.53	2.51	2.48	2.46	2.43	2.41	2.38	2.36	2.33	2.30	2.27	2.23	2.22	2.21	2.17	2.14	2.12	2.10	2.08	2.07	2.04	2.03	2.02	2.02	2.01	2.02	2.03	2.04	2.05	2.07	2.09	2.12	2.14	2.17	2.21	2.25	2.28	2.32	2.36	2.40	2.45	2.50	2.54	2.58	2.63	2.68	2.72	2.78	2.89	3.01	3.09	3.10	3.13	3.34	3.50	3.23	2.95	3.09	3.19	3.24	3.36	3.55	3.71	3.59	3.56	3.64	3.65	3.69	3.76	3.71	3.70	3.70	3.64	3.64	3.61	3.59	3.62	3.60	3.66	3.72	3.67	3.67	3.66	3.54	3.46	3.50	3.85	4.29	4.36	4.06	3.91	3.91	4.18	4.43	3.93	3.65	3.94	3.99	3.64	3.48	3.69	4.00	4.00	3.76	4.33	4.67	4.02	4.25	4.28	3.42	3.45	3.96	4.12	4.12	
2.72	2.71	2.71	2.71	2.70	2.69	2.68	2.67	2.65	2.64	2.62	2.60	2.58	2.56	2.54	2.52	2.50	2.47	2.45	2.43	2.40	2.38	2.35	2.32	2.30	2.27	2.24	2.24	2.21	2.18	2.16	2.14	2.13	2.11	2.10	2.08	2.08	2.07	2.07	2.07	2.08	2.10	2.11	2.12	2.15	2.17	2.19	2.22	2.25	2.30	2.33	2.36	2.40	2.44	2.48	2.53	2.56	2.60	2.67	2.69	2.69	2.74	2.81	2.93	3.17	3.26	3.15	3.27	3.55	3.65	3.49	3.30	3.28	3.35	3.33	3.37	3.47	3.52	3.62	3.67	3.68	3.76	3.84	3.79	3.77	3.73	3.66	3.72	3.65	3.53	3.59	3.69	3.69	3.66	3.62	3.65	3.75	3.63	3.43	3.34	3.51	3.85	4.18	4.25	3.93	3.90	4.25	4.40	3.99	3.82	4.09	4.15	3.88	3.54	3.56	3.89	3.99	3.68	3.96	4.57	4.18	4.18	4.65	3.89	3.41	3.87	4.12	4.12	
2.72	2.72	2.72	2.71	2.71	2.70	2.69	2.67	2.66	2.64	2.63	2.61	2.59	2.57	2.55	2.53	2.51	2.49	2.47	2.44	2.42	2.40	2.37	2.35	2.33	2.30	2.28	2.26	2.24	2.23	2.20	2.18	2.17	2.16	2.14	2.13	2.13	2.13	2.12	2.13	2.14	2.15	2.16	2.18	2.20	2.22	2.24	2.27	2.30	2.34	2.37	2.40	2.44	2.47	2.51	2.55	2.59	2.61	2.71	2.78	2.69	2.70	2.79	2.79	3.06	3.32	3.11	3.03	3.15	3.40	3.67	3.65	3.51	3.57	3.55	3.49	3.44	3.39	3.62	3.74	3.68	3.78	3.95	3.95	3.95	4.01	3.94	4.04	4.10	3.78	3.66	3.85	3.94	3.85	3.67	3.61	3.83	3.80	3.57	3.40	3.43	3.55	3.79	4.20	4.04	3.87	4.25	4.42	4.01	3.96	4.22	4.14	4.00	3.69	3.55	3.79	3.99	3.75	3.75	4.30	4.15	3.93	4.53	4.31	3.62	3.81	4.10	4.10	
2.73	2.72	2.72	2.72	2.71	2.70	2.69	2.68	2.67	2.65	2.64	2.62	2.60	2.58	2.56	2.54	2.52	2.50	2.48	2.46	2.44	2.42	2.40	2.38	2.35	2.33	2.31	2.28	2.27	2.27	2.24	2.22	2.21	2.21	2.19	2.18	2.18	2.18	2.18	2.18	2.19	2.20	2.21	2.23	2.24	2.27	2.29	2.31	2.34	2.37	2.41	2.44	2.47	2.51	2.55	2.58	2.62	2.61	2.68	2.85	2.77	2.68	2.72	2.69	2.87	3.18	3.09	2.96	2.99	3.02	3.23	3.57	3.58	3.59	3.69	3.67	3.60	3.41	3.49	3.66	3.62	3.60	3.78	3.85	3.84	4.00	4.03	4.09	4.31	4.24	3.93	3.86	4.02	4.17	4.01	3.73	3.81	3.91	3.80	3.61	3.55	3.54	3.59	3.93	4.04	3.91	4.14	4.31	3.91	3.91	4.27	4.22	4.02	3.74	3.64	3.81	4.03	3.88	3.71	4.06	4.16	3.96	4.23	4.17	3.69	3.81	4.08	4.08	
2.73	2.73	2.73	2.72	2.72	2.71	2.70	2.69	2.67	2.66	2.64	2.63	2.61	2.59	2.58	2.56	2.54	2.52	2.50	2.48	2.46	2.44	2.42	2.40	2.38	2.36	2.34	2.32	2.30	2.29	2.29	2.26	2.25	2.25	2.23	2.22	2.22	2.22	2.22	2.22	2.23	2.25	2.26	2.27	2.29	2.31	2.34	2.36	2.38	2.41	2.44	2.48	2.51	2.54	2.57	2.61	2.64	2.64	2.65	2.80	2.81	2.71	2.60	2.62	2.92	3.16	3.16	3.10	3.21	3.15	3.02	3.29	3.48	3.48	3.54	3.54	3.55	3.48	3.47	3.60	3.61	3.56	3.60	3.50	3.45	3.56	3.61	3.65	3.81	4.07	4.08	3.80	3.81	4.02	4.08	3.96	3.85	3.91	3.88	3.75	3.67	3.60	3.58	3.70	3.85	3.86	4.03	4.15	3.84	3.75	4.02	4.20	4.15	3.83	3.68	3.82	4.01	3.97	3.78	3.84	4.07	4.15	4.22	4.05	3.56	3.68	4.01	4.01	
2.74	2.73	2.73	2.73	2.72	2.72	2.71	2.70	2.68	2.67	2.65	2.64	2.62	2.61	2.59	2.57	2.55	2.54	2.52	2.50	2.48	2.46	2.44	2.42	2.41	2.39	2.37	2.35	2.33	2.32	2.32	2.30	2.29	2.29	2.28	2.27	2.27	2.27	2.27	2.27	2.28	2.29	2.30	2.32	2.33	2.35	2.38	2.40	2.42	2.45	2.48	2.51	2.54	2.57	2.60	2.64	2.66	2.68	2.70	2.77	2.86	2.83	2.66	2.63	2.89	3.08	3.12	3.09	3.26	3.36	3.16	3.21	3.45	3.59	3.64	3.62	3.54	3.51	3.57	3.66	3.57	3.61	3.70	3.45	3.32	3.39	3.40	3.44	3.47	3.68	3.98	3.82	3.80	3.87	3.83	3.91	3.84	3.90	3.85	3.71	3.72	3.66	3.64	3.68	3.76	3.79	3.91	3.99	3.85	3.79	3.82	3.92	4.02	3.86	3.68	3.77	3.94	3.96	3.91	3.80	3.92	4.15	4.30	4.33	3.81	3.59	3.79	3.79	
2.74	2.74	2.74	2.74	2.73	2.72	2.71	2.70	2.69	2.68	2.66	2.65	2.63	2.62	2.60	2.59	2.57	2.55	2.53	2.52	2.50	2.48	2.47	2.45	2.43	2.41	2.40	2.38	2.36	2.35	2.34	2.33	2.32	2.33	2.32	2.31	2.31	2.31	2.31	2.31	2.32	2.34	2.35	2.36	2.37	2.39	2.42	2.44	2.46	2.49	2.52	2.54	2.57	2.60	2.63	2.67	2.69	2.71	2.74	2.78	2.88	2.94	2.86	2.86	2.94	2.98	3.02	3.00	3.15	3.30	3.11	3.02	3.26	3.49	3.65	3.81	3.75	3.60	3.64	3.80	3.64	3.62	3.70	3.46	3.32	3.32	3.33	3.35	3.32	3.38	3.64	3.65	3.74	3.92	3.85	3.81	3.70	3.83	3.88	3.68	3.66	3.66	3.66	3.70	3.77	3.82	3.88	3.91	3.83	3.79	3.80	3.79	3.81	3.80	3.70	3.73	3.84	3.88	3.93	3.89	3.90	4.01	4.06	4.35	4.25	3.86	3.81	3.81	
2.75	2.74	2.74	2.74	2.74	2.73	2.72	2.71	2.70	2.69	2.68	2.66	2.65	2.63	2.62	2.60	2.58	2.57	2.55	2.54	2.52	2.50	2.49	2.47	2.46	2.44	2.43	2.41	2.40	2.38	2.37	2.36	2.35	2.35	2.36	2.36	2.35	2.35	2.35	2.35	2.36	2.38	2.39	2.40	2.41	2.43	2.45	2.47	2.49	2.52	2.55	2.57	2.60	2.63	2.66	2.70	2.72	2.72	2.75	2.76	2.79	2.85	2.82	2.93	3.07	3.00	2.90	2.93	3.19	3.35	3.13	2.92	3.10	3.27	3.31	3.55	3.69	3.66	3.52	3.61	3.67	3.65	3.67	3.39	3.22	3.19	3.12	3.17	3.24	3.23	3.33	3.42	3.54	3.75	3.90	3.92	3.68	3.62	3.75	3.66	3.57	3.61	3.65	3.68	3.76	3.84	3.90	3.88	3.83	3.78	3.71	3.64	3.58	3.59	3.69	3.74	3.72	3.70	3.78	3.86	3.88	3.92	3.80	3.98	4.17	4.09	4.10	4.10	
2.76	2.75	2.75	2.75	2.74	2.74	2.73	2.72	2.71	2.70	2.69	2.67	2.66	2.64	2.63	2.61	2.60	2.58	2.57	2.55	2.54	2.52	2.51	2.49	2.48	2.47	2.45	2.44	2.43	2.42	2.41	2.40	2.39	2.38	2.38	2.38	2.39	2.39	2.39	2.40	2.40	2.41	2.43	2.44	2.45	2.47	2.49	2.50	2.52	2.55	2.58	2.60	2.63	2.67	2.69	2.74	2.76	2.74	2.76	2.76	2.75	2.78	2.72	2.80	3.07	3.08	2.82	2.80	3.20	3.43	3.31	3.08	3.11	3.25	3.23	3.20	3.39	3.79	3.57	3.36	3.49	3.59	3.83	3.57	3.18	3.20	3.07	3.05	3.32	3.31	3.25	3.34	3.44	3.56	3.72	3.97	3.89	3.65	3.73	3.71	3.58	3.57	3.57	3.64	3.75	3.91	4.06	4.05	4.01	4.09	3.96	3.78	3.63	3.38	3.56	3.88	3.83	3.66	3.60	3.66	3.76	3.92	3.77	3.73	3.83	4.00	4.27	4.27	
2.76	2.76	2.76	2.76	2.75	2.75	2.74	2.73	2.72	2.71	2.70	2.68	2.67	2.66	2.64	2.63	2.61	2.60	2.59	2.57	2.56	2.54	2.53	2.52	2.50	2.49	2.48	2.47	2.46	2.45	2.44	2.43	2.43	2.42	2.41	2.41	2.42	2.42	2.43	2.44	2.44	2.44	2.46	2.47	2.48	2.50	2.52	2.54	2.56	2.57	2.60	2.62	2.66	2.69	2.71	2.81	2.87	2.78	2.78	2.79	2.78	2.89	2.86	2.78	2.92	3.13	2.96	2.78	3.04	3.20	3.22	3.20	3.20	3.33	3.50	3.29	3.47	4.24	4.02	3.63	3.50	3.46	4.00	4.08	3.57	3.55	3.52	3.27	3.37	3.42	3.36	3.42	3.50	3.54	3.61	3.95	4.04	3.79	3.81	3.77	3.68	3.65	3.51	3.51	3.62	3.72	3.93	4.18	4.26	4.38	4.45	4.32	4.16	3.65	3.47	3.95	4.21	4.09	3.83	3.55	3.53	3.83	3.83	3.72	3.70	3.93	4.26	4.26	
2.77	2.76	2.77	2.77	2.76	2.76	2.75	2.74	2.73	2.72	2.71	2.69	2.68	2.67	2.66	2.64	2.63	2.62	2.60	2.59	2.58	2.56	2.55	2.54	2.53	2.52	2.51	2.50	2.49	2.48	2.47	2.46	2.46	2.45	2.45	2.45	2.45	2.45	2.46	2.47	2.48	2.48	2.49	2.51	2.52	2.54	2.55	2.57	2.59	2.60	2.62	2.64	2.68	2.71	2.69	2.81	3.07	2.98	2.84	2.86	2.76	2.95	3.10	2.82	2.64	2.88	2.98	2.96	3.07	3.07	3.07	3.12	3.18	3.34	3.68	3.57	3.69	4.59	4.64	4.08	3.83	3.59	3.86	4.20	4.08	3.89	3.87	3.70	3.38	3.25	3.34	3.37	3.53	3.59	3.54	3.81	3.97	3.80	3.69	3.63	3.66	3.75	3.63	3.48	3.46	3.45	3.31	3.55	3.97	4.12	4.29	4.35	4.37	4.06	3.55	3.62	4.08	4.34	4.25	3.82	3.56	3.75	3.82	3.71	3.70	3.96	4.28	4.28	
2.78	2.77	2.77	2.77	2.77	2.76	2.76	2.75	2.74	2.73	2.72	2.71	2.69	2.68	2.67	2.66	2.64	2.63	2.62	2.61	2.59	2.58	2.57	2.56	2.55	2.54	2.53	2.52	2.51	2.50	2.50	2.49	2.49	2.49	2.48	2.48	2.48	2.48	2.49	2.49	2.51	2.52	2.53	2.53	2.55	2.57	2.58	2.59	2.61	2.63	2.64	2.66	2.70	2.72	2.69	2.71	3.09	3.25	3.03	2.98	2.75	2.87	3.23	2.95	2.63	2.66	2.88	3.09	3.16	3.16	3.16	3.10	2.84	2.81	3.11	3.12	3.12	4.09	4.73	4.26	3.97	3.87	3.69	3.57	3.85	4.02	3.95	4.13	3.81	3.33	3.43	3.43	3.42	3.56	3.54	3.65	3.82	3.99	3.80	3.49	3.48	3.59	3.67	3.65	3.62	3.75	3.50	3.15	3.44	3.78	3.96	4.09	4.13	4.03	3.67	3.46	3.74	4.15	4.25	3.92	3.66	3.80	3.75	3.63	3.64	3.90	4.23	4.23	
2.78	2.78	2.78	2.78	2.78	2.77	2.77	2.76	2.75	2.74	2.73	2.72	2.71	2.69	2.68	2.67	2.66	2.65	2.64	2.62	2.61	2.60	2.59	2.58	2.57	2.56	2.55	2.54	2.54	2.53	2.53	2.52	2.52	2.51	2.51	2.51	2.51	2.52	2.52	2.52	2.53	2.55	2.56	2.57	2.58	2.60	2.61	2.61	2.63	2.65	2.66	2.67	2.71	2.72	2.70	2.68	2.93	3.25	3.24	3.19	3.01	3.03	3.29	3.18	2.89	2.62	2.74	3.06	3.08	3.13	3.28	3.33	3.02	2.68	2.62	2.74	2.79	3.37	4.26	4.10	3.89	4.14	4.24	3.56	3.26	3.67	3.74	3.99	4.16	3.69	3.52	3.58	3.42	3.58	3.78	3.70	3.64	4.00	4.06	3.60	3.46	3.49	3.57	3.66	3.66	3.78	3.77	3.35	3.19	3.44	3.72	4.00	4.02	3.90	3.75	3.62	3.80	4.08	4.23	3.94	3.52	3.74	3.81	3.66	3.69	3.86	4.05	4.05	
2.79	2.79	2.79	2.79	2.78	2.78	2.77	2.77	2.76	2.75	2.74	2.73	2.72	2.71	2.70	2.68	2.67	2.66	2.65	2.64	2.63	2.62	2.61	2.60	2.59	2.58	2.58	2.57	2.56	2.56	2.55	2.55	2.54	2.54	2.54	2.54	2.54	2.55	2.55	2.55	2.56	2.57	2.59	2.60	2.61	2.62	2.64	2.65	2.65	2.67	2.67	2.69	2.70	2.71	2.67	2.76	2.97	3.13	3.21	3.25	3.30	3.28	3.36	3.40	3.19	2.72	2.62	2.93	3.05	3.11	3.29	3.46	3.54	3.29	2.80	2.71	2.85	3.39	3.96	3.94	3.75	3.94	4.57	4.40	3.66	3.43	3.32	3.41	3.74	3.58	3.35	3.42	3.24	3.34	3.86	3.98	3.76	3.95	4.05	3.67	3.45	3.43	3.45	3.47	3.54	3.54	3.63	3.54	3.28	3.24	3.40	3.84	4.05	3.83	3.53	3.61	3.93	4.01	4.24	4.25	3.58	3.49	3.77	3.75	3.83	3.99	4.07	4.07	
2.80	2.79	2.80	2.80	2.79	2.79	2.78	2.78	2.77	2.76	2.75	2.74	2.73	2.72	2.71	2.70	2.69	2.68	2.67	2.66	2.65	2.64	2.63	2.62	2.61	2.60	2.60	2.59	2.58	2.58	2.58	2.57	2.57	2.57	2.57	2.57	2.57	2.57	2.58	2.58	2.59	2.60	2.61	2.62	2.63	2.65	2.66	2.67	2.67	2.69	2.69	2.70	2.69	2.67	2.59	2.72	3.08	3.20	3.06	3.01	3.24	3.28	3.24	3.42	3.45	3.03	2.82	2.89	3.03	3.09	3.14	3.30	3.51	3.75	3.52	3.18	3.20	3.46	3.77	3.88	3.62	3.44	4.06	4.49	4.32	4.02	3.60	3.57	3.72	3.69	3.60	3.45	3.14	2.95	3.40	3.87	3.97	4.25	4.24	3.73	3.32	3.18	3.24	3.53	3.80	3.60	3.58	3.66	3.58	3.43	3.18	3.31	3.83	3.92	3.36	3.43	3.93	3.87	4.10	4.44	3.85	3.42	3.60	3.74	3.82	3.97	4.11	4.11	
2.81	2.80	2.81	2.81	2.80	2.80	2.79	2.79	2.78	2.77	2.76	2.75	2.74	2.73	2.72	2.71	2.70	2.69	2.68	2.67	2.66	2.65	2.65	2.64	2.63	2.62	2.62	2.61	2.61	2.60	2.60	2.60	2.59	2.59	2.59	2.59	2.60	2.60	2.61	2.61	2.62	2.62	2.63	2.64	2.65	2.67	2.69	2.69	2.69	2.70	2.70	2.71	2.68	2.62	2.52	2.58	3.00	3.38	3.15	2.92	3.10	3.24	3.13	3.23	3.38	3.03	2.95	3.02	3.09	3.08	2.95	2.99	2.99	3.24	3.49	3.54	3.61	3.47	3.43	3.66	3.65	3.32	3.58	4.18	4.32	4.34	4.28	4.35	4.37	4.47	4.52	4.02	3.50	3.16	3.15	3.50	3.88	4.40	4.71	4.39	3.85	3.42	3.11	3.43	4.01	3.74	3.47	3.46	3.65	3.87	3.45	2.98	3.22	3.72	3.34	3.29	3.78	3.62	3.90	4.48	4.16	3.63	3.55	3.73	3.82	3.91	4.04	4.04	
2.82	2.81	2.81	2.82	2.81	2.81	2.80	2.79	2.79	2.78	2.77	2.76	2.75	2.74	2.73	2.72	2.71	2.70	2.69	2.69	2.68	2.67	2.66	2.65	2.65	2.64	2.64	2.63	2.63	2.62	2.62	2.62	2.62	2.62	2.62	2.62	2.62	2.62	2.63	2.63	2.64	2.65	2.66	2.67	2.67	2.69	2.71	2.71	2.72	2.72	2.72	2.71	2.68	2.57	2.45	2.47	2.79	3.40	3.51	3.09	3.00	3.19	3.27	3.32	3.24	2.77	2.65	3.02	3.26	3.20	3.03	2.89	2.80	2.64	2.54	2.86	3.50	3.59	3.31	3.41	3.62	3.32	3.12	3.76	4.23	4.14	4.09	4.36	4.34	4.39	4.97	4.91	4.26	3.84	3.55	3.40	3.65	4.20	4.66	4.75	4.59	4.08	3.44	3.44	4.02	3.96	3.44	3.21	3.40	3.95	4.00	3.39	3.02	3.29	3.15	3.14	3.63	3.37	3.44	4.10	4.18	3.79	3.57	3.70	3.79	3.88	3.96	3.96	
2.83	2.82	2.82	2.82	2.82	2.81	2.81	2.80	2.79	2.79	2.78	2.77	2.76	2.75	2.74	2.73	2.72	2.72	2.71	2.70	2.69	2.68	2.68	2.67	2.66	2.66	2.65	2.65	2.64	2.64	2.64	2.64	2.64	2.64	2.64	2.64	2.64	2.65	2.65	2.66	2.66	2.67	2.68	2.69	2.70	2.71	2.72	2.73	2.74	2.74	2.74	2.73	2.69	2.60	2.42	2.33	2.45	2.96	3.66	3.48	2.99	2.97	3.32	3.74	3.62	2.92	2.39	2.72	3.18	3.22	3.15	2.95	2.86	2.73	2.48	2.48	3.07	3.52	3.13	3.26	3.59	3.28	2.66	2.76	3.67	3.58	3.30	3.69	3.68	3.43	4.10	4.81	4.61	4.24	3.99	3.45	3.22	3.87	4.37	4.43	4.62	4.38	3.87	3.84	4.19	4.32	3.77	3.40	3.39	3.65	3.98	3.84	3.45	3.30	3.10	2.97	3.46	3.47	3.24	3.57	3.75	3.56	3.55	3.72	3.75	3.83	3.90	3.90	
2.84	2.83	2.83	2.83	2.83	2.82	2.82	2.81	2.80	2.79	2.79	2.78	2.77	2.76	2.75	2.74	2.73	2.73	2.72	2.71	2.70	2.70	2.69	2.68	2.68	2.67	2.67	2.67	2.66	2.66	2.66	2.66	2.65	2.66	2.66	2.66	2.66	2.67	2.67	2.68	2.68	2.69	2.70	2.71	2.72	2.73	2.74	2.75	2.76	2.77	2.76	2.75	2.72	2.67	2.55	2.43	2.29	2.39	3.24	3.71	3.33	2.91	2.94	3.64	4.09	3.47	2.71	2.69	3.14	3.30	3.21	3.14	3.04	3.10	2.99	2.75	3.02	3.35	2.92	3.18	3.75	3.56	2.78	2.39	3.23	3.23	2.99	3.37	3.48	3.21	3.35	4.02	4.10	3.97	4.01	3.62	3.08	3.42	4.06	4.17	4.33	4.33	4.02	3.93	4.24	4.46	4.16	3.83	3.75	3.74	3.84	3.90	3.72	3.51	3.24	2.93	3.17	3.47	3.37	3.53	3.56	3.23	3.36	3.70	3.82	3.94	4.03	4.03	
2.85	2.85	2.84	2.84	2.84	2.83	2.82	2.82	2.81	2.80	2.79	2.78	2.78	2.77	2.76	2.75	2.74	2.74	2.73	2.72	2.71	2.71	2.70	2.70	2.69	2.69	2.68	2.68	2.68	2.67	2.67	2.67	2.67	2.67	2.67	2.67	2.68	2.68	2.69	2.69	2.70	2.71	2.72	2.73	2.74	2.75	2.76	2.77	2.78	2.78	2.78	2.78	2.76	2.74	2.69	2.62	2.43	2.26	2.69	3.26	3.37	3.10	2.63	2.90	3.90	3.77	3.02	2.79	3.21	3.54	3.43	3.36	3.19	3.30	3.43	3.39	3.45	3.21	2.86	3.12	3.78	3.92	3.03	2.47	3.11	3.26	3.10	3.25	3.42	3.29	3.33	3.80	3.72	3.62	3.86	3.72	3.25	3.27	3.72	3.86	3.91	4.12	4.10	3.97	4.25	4.44	4.36	4.36	4.32	4.16	4.04	4.02	3.89	3.72	3.54	3.29	3.24	3.31	3.28	3.71	3.82	3.22	3.20	3.54	3.72	3.96	4.14	4.14	
2.87	2.86	2.86	2.85	2.84	2.84	2.83	2.82	2.81	2.81	2.80	2.79	2.78	2.77	2.77	2.76	2.75	2.74	2.74	2.73	2.72	2.72	2.71	2.71	2.70	2.70	2.69	2.69	2.69	2.69	2.68	2.68	2.68	2.68	2.69	2.69	2.69	2.70	2.70	2.71	2.72	2.72	2.73	2.74	2.75	2.76	2.77	2.78	2.79	2.80	2.80	2.81	2.80	2.79	2.76	2.72	2.62	2.48	2.58	2.80	2.95	3.02	2.67	2.56	3.44	3.76	3.12	2.75	3.08	3.47	3.48	3.46	3.12	3.06	3.33	3.64	3.83	3.13	2.79	3.21	3.79	4.04	3.23	2.74	3.12	3.25	3.11	3.14	3.24	3.17	3.35	3.86	3.72	3.41	3.59	3.69	3.49	3.44	3.76	3.71	3.34	3.49	3.83	3.94	4.12	4.31	4.30	4.42	4.67	4.63	4.45	4.54	4.51	4.23	4.04	3.93	3.89	3.57	3.11	3.53	3.90	3.31	3.16	3.45	3.59	3.87	4.10	4.10	
2.89	2.88	2.87	2.86	2.85	2.84	2.83	2.83	2.82	2.81	2.80	2.79	2.79	2.78	2.77	2.76	2.76	2.75	2.74	2.74	2.73	2.73	2.72	2.72	2.71	2.71	2.70	2.70	2.70	2.70	2.69	2.69	2.69	2.70	2.70	2.70	2.70	2.71	2.71	2.72	2.73	2.74	2.74	2.75	2.76	2.78	2.79	2.80	2.81	2.82	2.83	2.83	2.84	2.83	2.82	2.80	2.77	2.73	2.74	2.80	2.82	2.85	2.77	2.59	2.98	3.43	3.09	2.62	2.82	3.12	3.11	3.35	3.08	2.78	2.91	3.35	3.78	3.31	2.77	3.01	3.67	3.98	3.63	3.21	3.36	3.44	3.22	3.27	3.27	3.13	3.22	3.68	3.77	3.52	3.48	3.57	3.57	3.50	3.83	3.95	3.47	3.26	3.45	3.65	3.67	3.73	3.74	3.74	4.08	4.37	4.29	4.42	4.66	4.65	4.53	4.45	4.58	4.45	3.89	3.89	4.22	3.95	3.58	3.60	3.65	3.79	3.97	3.97	
2.90	2.89	2.88	2.87	2.86	2.85	2.84	2.83	2.82	2.82	2.81	2.80	2.79	2.79	2.78	2.77	2.77	2.76	2.75	2.75	2.74	2.74	2.73	2.73	2.72	2.72	2.71	2.71	2.71	2.71	2.71	2.71	2.71	2.71	2.71	2.71	2.72	2.72	2.73	2.73	2.74	2.75	2.76	2.77	2.78	2.79	2.80	2.81	2.82	2.84	2.85	2.85	2.86	2.86	2.85	2.84	2.84	2.83	2.83	2.89	2.89	2.83	2.80	2.64	2.77	3.12	2.99	2.52	2.69	2.95	2.87	3.18	3.08	2.70	2.74	3.14	3.62	3.47	2.81	2.77	3.43	3.90	3.87	3.38	3.44	3.63	3.43	3.43	3.39	3.20	3.16	3.49	3.77	3.74	3.59	3.49	3.49	3.45	3.78	4.17	4.03	3.58	3.35	3.46	3.44	3.39	3.43	3.40	3.55	3.86	3.86	3.92	4.27	4.62	4.73	4.66	4.87	5.07	4.85	4.63	4.77	4.63	4.06	3.76	3.70	3.74	3.86	3.86	
