ncols	128
nrows	92
xllcorner	280654.681342
yllcorner	3772085.885776
cellsize	500.000000
NODATA_value	-32768.000000
5.07	5.05	5.52	6.02	5.87	5.49	5.24	5.67	6.34	6.59	6.55	6.47	6.14	5.99	5.58	5.00	4.82	4.78	5.45	6.22	6.51	6.51	6.50	6.61	6.52	6.38	6.61	6.68	6.35	6.19	6.24	6.22	6.17	6.26	6.38	6.52	6.89	7.22	7.54	7.70	7.67	7.50	7.14	7.31	7.68	7.79	7.56	7.09	6.69	7.31	7.77	7.91	7.81	7.87	7.77	7.30	6.80	6.29	6.26	6.45	6.80	7.59	7.95	7.93	8.05	7.85	7.37	6.58	5.51	4.94	4.98	5.30	5.29	4.97	4.63	4.64	4.67	4.50	4.63	4.83	5.01	5.24	6.67	7.68	7.10	6.51	6.79	7.05	6.93	6.46	6.55	6.68	6.47	6.59	6.32	5.81	5.84	5.45	4.86	4.78	5.23	5.51	6.19	7.00	6.26	4.96	4.61	4.33	4.43	4.54	4.77	4.91	4.85	5.30	5.56	5.48	5.51	5.77	6.09	6.22	6.37	6.51	6.48	6.26	6.03	5.89	5.80	5.80	
5.07	5.05	5.52	6.02	5.87	5.49	5.24	5.67	6.34	6.59	6.55	6.47	6.14	5.99	5.58	5.00	4.82	4.78	5.45	6.22	6.51	6.51	6.50	6.61	6.52	6.38	6.61	6.68	6.35	6.19	6.24	6.22	6.17	6.26	6.38	6.52	6.89	7.22	7.54	7.70	7.67	7.50	7.14	7.31	7.68	7.79	7.56	7.09	6.69	7.31	7.77	7.91	7.81	7.87	7.77	7.30	6.80	6.29	6.26	6.45	6.80	7.59	7.95	7.93	8.05	7.85	7.37	6.58	5.51	4.94	4.98	5.30	5.29	4.97	4.63	4.64	4.67	4.50	4.63	4.83	5.01	5.24	6.67	7.68	7.10	6.51	6.79	7.05	6.93	6.46	6.55	6.68	6.47	6.59	6.32	5.81	5.84	5.45	4.86	4.78	5.23	5.51	6.19	7.00	6.26	4.96	4.61	4.33	4.43	4.54	4.77	4.91	4.85	5.30	5.56	5.48	5.51	5.77	6.09	6.22	6.37	6.51	6.48	6.26	6.03	5.89	5.80	5.80	
4.79	4.20	4.15	4.99	5.39	5.22	4.60	4.49	5.15	5.53	5.59	5.79	5.55	5.57	5.61	5.31	5.17	4.91	4.84	5.16	5.51	5.65	5.68	5.85	5.84	5.42	5.47	5.89	5.80	5.57	5.53	5.57	5.46	5.45	5.57	5.64	5.50	5.35	6.04	6.47	6.69	6.92	6.51	5.85	5.99	6.46	6.35	6.49	6.12	6.27	6.50	6.20	6.05	6.53	6.83	7.04	6.94	6.18	5.99	6.02	5.80	6.34	6.93	6.79	6.83	6.90	6.84	6.61	6.07	5.58	5.31	5.43	5.51	5.34	5.04	4.93	4.86	4.74	4.94	5.17	5.41	5.39	5.80	6.93	7.01	6.46	6.65	7.01	7.28	7.07	6.73	6.35	5.57	5.77	6.56	6.54	6.42	6.07	5.44	4.94	5.08	5.25	5.43	6.57	6.88	6.03	5.56	4.91	4.53	4.35	4.42	4.63	4.61	4.86	5.17	5.26	5.38	5.56	5.76	5.70	5.58	5.65	5.75	5.75	5.74	5.81	5.86	5.86	
5.37	4.47	3.66	4.07	4.99	5.41	4.76	4.15	4.53	4.78	4.80	5.26	5.41	5.40	5.59	5.63	5.43	4.92	4.54	4.68	4.90	4.86	4.76	4.91	5.18	4.94	4.75	5.10	5.33	5.32	5.16	5.21	5.22	5.10	5.04	4.86	4.57	4.50	4.96	5.08	5.17	5.74	5.76	5.12	5.39	5.97	5.39	5.50	5.29	5.09	5.35	5.01	5.12	5.48	5.35	6.21	7.26	6.46	5.60	5.74	5.26	5.08	5.63	5.44	5.39	5.98	6.53	6.69	6.52	6.23	5.75	5.57	5.78	5.84	5.63	5.44	5.32	5.34	5.64	5.77	5.47	4.77	4.80	6.28	7.06	6.67	6.41	6.37	6.84	7.26	7.21	6.94	5.75	5.31	6.25	6.79	7.08	6.71	6.23	5.67	5.07	4.76	4.76	5.97	7.13	7.43	7.35	6.67	5.48	4.63	4.51	4.57	4.55	4.66	4.80	4.99	5.22	5.30	5.45	5.46	5.30	5.31	5.43	5.42	5.45	5.62	5.74	5.74	
5.66	5.63	5.02	4.32	4.58	5.10	4.95	4.59	4.67	4.77	4.76	4.88	5.16	5.20	5.10	5.24	5.20	4.83	4.66	4.79	4.89	4.77	4.66	4.75	4.93	4.92	4.76	4.78	4.92	5.11	5.06	5.04	5.16	5.13	5.03	4.83	4.69	4.72	4.88	4.83	4.76	5.17	5.32	4.88	5.25	6.37	6.00	5.51	5.27	4.91	5.08	5.13	5.68	5.66	4.49	4.64	6.83	7.13	5.58	5.49	5.47	5.26	5.60	5.79	5.83	6.03	6.62	7.01	6.88	6.72	6.32	5.77	5.75	5.75	5.53	5.47	5.35	5.02	4.91	5.14	4.67	4.11	4.30	5.34	6.48	6.55	6.32	5.83	6.03	6.91	7.62	7.73	7.12	6.63	6.37	6.36	7.02	6.87	6.42	6.18	5.56	4.61	4.47	5.58	6.27	6.90	7.51	7.83	6.98	5.43	5.27	5.18	5.12	5.33	5.03	4.76	5.10	5.44	5.49	5.34	5.25	5.54	5.86	5.72	5.47	5.48	5.52	5.52	
4.69	5.36	5.55	4.57	4.13	4.29	4.15	4.17	4.41	4.62	4.90	4.77	4.69	4.86	4.85	4.93	5.04	4.84	4.67	4.73	4.87	4.86	4.80	4.89	4.94	4.86	4.76	4.75	4.79	4.86	4.89	4.87	4.90	4.90	4.88	4.78	4.64	4.50	4.58	4.78	4.82	5.20	5.28	4.55	4.52	5.60	6.02	5.99	5.96	5.63	5.24	5.30	5.96	6.16	5.17	3.87	4.96	7.19	6.30	5.09	5.13	5.54	5.87	6.18	6.52	6.24	6.32	6.96	7.20	7.31	6.99	6.38	6.35	6.34	5.94	5.30	4.41	4.14	4.29	4.65	4.79	4.23	3.56	3.72	4.73	5.53	6.09	5.58	5.24	5.73	6.58	6.66	6.14	6.49	6.66	6.63	6.81	6.80	6.84	6.97	6.74	5.49	4.41	5.09	5.79	5.85	6.41	7.72	7.84	5.91	5.12	5.12	5.26	5.98	6.02	5.20	5.29	5.92	6.25	5.70	4.84	5.03	5.60	5.76	5.75	5.65	5.52	5.52	
4.36	4.91	5.52	5.19	4.67	4.34	3.98	4.00	4.27	4.56	4.98	5.19	5.03	4.88	4.93	4.93	4.92	4.85	4.80	4.86	4.94	4.97	4.93	4.98	5.07	5.05	4.97	4.96	5.00	5.02	4.99	4.97	4.96	4.89	4.84	4.78	4.71	4.51	4.26	4.33	4.38	4.79	5.27	4.98	4.89	5.06	5.19	5.39	5.63	5.83	5.43	5.44	5.75	6.02	6.24	4.91	4.11	6.04	7.01	5.55	4.73	5.12	5.07	4.91	5.80	5.88	5.92	6.34	6.62	7.23	7.18	6.68	6.83	7.16	7.37	6.68	5.06	4.86	5.35	5.51	5.14	4.20	3.28	2.93	3.47	4.68	5.72	5.26	4.42	4.43	5.67	5.87	5.07	5.36	6.01	6.67	6.87	6.29	5.99	6.45	6.88	6.55	5.38	5.20	6.26	6.43	6.28	7.38	8.32	7.48	6.02	5.17	4.67	5.13	6.13	6.09	5.83	6.22	7.00	7.13	5.75	5.05	5.39	5.44	5.52	5.51	5.40	5.40	
4.55	4.97	5.48	5.69	5.83	5.42	4.76	4.46	4.42	4.56	4.80	5.16	5.40	5.25	5.19	5.14	4.96	4.90	4.86	4.83	4.79	4.86	4.97	5.02	5.04	5.00	4.97	4.97	4.97	4.95	4.90	4.87	4.82	4.75	4.69	4.61	4.52	4.45	4.30	4.10	4.01	4.17	4.63	4.92	5.12	5.15	4.87	4.81	4.91	5.02	5.09	5.37	5.43	5.46	5.97	5.78	4.97	5.18	6.63	6.18	4.41	4.08	4.21	4.42	5.17	5.01	5.15	5.49	5.72	6.72	6.97	6.18	5.85	6.02	6.57	7.24	6.69	5.93	5.21	5.08	5.27	5.30	4.90	3.95	3.92	4.80	6.01	6.10	5.12	4.57	5.79	6.09	5.55	5.45	5.69	6.22	6.88	6.72	5.65	5.32	5.66	6.16	5.68	5.27	6.17	6.77	6.38	6.69	7.65	8.22	8.14	7.13	5.79	4.88	4.96	5.40	5.51	5.63	6.20	7.27	7.07	6.11	6.22	6.22	6.00	5.76	5.53	5.53	
4.44	4.96	5.40	5.30	5.69	5.92	5.52	5.10	4.85	4.77	4.81	4.92	5.14	5.24	5.26	5.21	5.03	4.95	5.00	5.01	4.84	4.76	4.88	5.04	5.09	5.04	5.04	5.08	5.10	5.02	4.90	4.87	4.79	4.61	4.63	4.70	4.59	4.63	4.85	4.68	4.40	4.26	4.33	4.64	4.86	5.00	4.82	4.75	4.90	4.78	4.72	5.08	5.20	5.30	5.43	5.38	5.37	5.18	5.76	6.02	4.93	3.95	3.49	4.04	4.88	4.66	4.38	4.44	4.62	5.74	6.32	6.05	5.78	5.24	5.01	5.37	5.27	5.22	4.88	4.96	5.69	6.36	6.62	5.86	4.94	5.06	6.14	7.05	6.85	5.88	6.10	6.24	6.14	6.20	6.01	5.92	6.36	7.25	6.96	5.83	5.37	5.77	5.61	4.91	5.14	5.99	6.46	6.84	6.90	6.99	7.89	7.92	7.10	6.35	5.46	5.02	5.18	5.27	5.39	6.29	6.97	6.68	6.57	6.78	6.84	6.72	6.58	6.58	
4.19	4.65	5.33	5.19	5.06	5.29	5.36	5.30	5.12	4.92	4.82	4.82	4.77	4.85	5.02	5.06	5.01	4.95	4.98	5.14	5.10	4.87	4.84	5.01	5.11	5.05	5.05	5.11	5.14	4.99	4.70	4.72	4.86	4.71	4.77	5.00	4.92	4.74	4.87	5.00	4.88	4.71	4.56	4.50	4.56	4.66	4.54	4.38	4.63	4.92	4.74	4.58	4.75	5.08	5.23	5.06	5.03	5.17	5.65	5.92	6.14	5.66	3.86	3.43	4.16	4.58	4.21	4.00	4.35	5.51	5.78	6.10	7.01	7.07	6.44	5.38	4.99	5.48	6.14	6.27	5.67	5.29	5.72	5.67	5.08	4.88	5.33	6.16	7.05	6.73	6.06	5.79	5.62	6.25	6.41	5.74	5.55	6.40	7.41	6.83	6.03	6.04	5.80	4.99	4.80	5.13	5.56	6.22	6.07	5.55	6.44	7.00	6.22	6.03	5.95	5.42	5.45	5.82	5.72	5.88	6.09	6.03	5.87	5.65	5.57	6.25	6.92	6.92	
4.07	4.36	5.18	5.41	5.17	5.06	4.98	5.02	5.05	4.98	4.89	4.87	4.80	4.79	4.89	4.95	4.96	4.94	4.88	4.98	5.12	5.00	4.87	4.96	5.06	5.01	5.03	5.29	5.61	5.59	5.18	5.03	5.16	5.09	5.03	5.04	4.94	4.74	4.63	4.66	4.66	4.70	4.70	4.60	4.58	4.67	4.55	4.23	4.25	4.77	5.05	4.81	4.64	4.86	4.90	5.10	5.55	5.93	6.70	7.04	7.49	8.13	7.08	5.18	4.78	5.36	5.38	5.39	5.59	6.69	6.62	5.46	6.44	7.86	8.58	7.74	6.62	6.31	6.01	5.89	5.60	5.30	5.21	5.14	5.06	4.85	4.78	4.95	5.96	6.54	5.54	5.55	5.54	5.76	6.53	6.13	5.10	5.13	6.65	6.90	5.91	5.45	5.67	5.59	5.22	4.87	4.86	5.75	5.99	5.09	5.64	7.13	6.57	5.50	5.45	5.29	5.24	5.53	5.44	5.58	5.63	5.40	5.49	5.41	5.01	5.39	6.06	6.06	
3.99	4.09	4.73	5.13	5.04	4.96	4.87	4.87	4.91	4.98	4.99	4.95	4.80	4.75	4.81	4.83	4.90	4.99	4.95	4.90	4.99	4.91	4.75	4.86	5.00	4.90	4.79	5.03	5.64	6.11	6.00	5.72	5.50	5.17	4.93	4.86	4.81	4.69	4.65	4.53	4.37	4.55	4.76	4.68	4.66	4.84	4.79	4.38	4.01	4.03	4.51	5.01	4.97	4.88	4.60	4.75	5.49	6.05	6.45	6.74	6.93	7.81	8.85	8.34	7.50	7.26	7.30	7.14	6.28	6.35	7.35	5.83	4.90	5.83	8.03	8.45	6.64	5.62	5.64	5.65	5.67	5.96	5.74	5.24	5.09	4.92	4.84	4.87	5.76	6.65	5.36	5.22	5.93	5.95	6.30	6.46	5.36	4.65	5.71	6.23	5.52	5.16	5.63	6.36	6.38	5.81	5.50	6.05	6.79	5.95	5.03	6.52	7.56	6.77	5.93	5.31	5.14	5.29	5.11	5.19	5.30	5.22	5.39	5.48	5.53	5.61	5.66	5.66	
4.16	4.14	4.53	4.86	4.84	4.87	4.86	4.85	4.89	4.98	5.01	5.12	4.93	4.68	4.78	4.86	4.91	5.03	5.09	5.02	5.08	5.05	4.82	4.92	5.11	4.96	4.74	4.47	4.61	5.25	5.52	5.46	5.40	5.33	5.04	4.88	4.94	4.85	4.95	4.91	4.58	4.70	5.03	4.90	4.78	4.96	5.02	4.80	4.39	3.83	3.66	4.09	4.51	4.72	4.45	4.41	4.63	4.78	4.89	5.04	5.20	5.45	6.67	7.78	7.36	6.47	6.41	6.90	6.22	5.72	7.03	6.77	5.17	4.86	6.69	8.33	7.31	5.71	5.84	6.09	5.64	5.86	5.97	5.45	5.19	5.15	5.09	4.95	5.77	6.85	5.65	4.81	5.58	6.25	6.22	6.37	5.58	4.84	5.90	6.65	6.22	5.80	5.53	6.08	6.76	6.53	5.83	5.57	6.52	6.85	5.45	5.19	6.52	6.90	6.44	5.75	5.62	5.89	5.65	5.65	5.48	5.42	5.79	5.55	5.65	5.88	5.79	5.79	
4.59	4.31	4.33	4.70	4.79	4.85	4.90	4.78	4.75	4.97	5.05	5.26	5.30	4.89	4.75	4.90	4.99	5.04	5.17	5.15	5.16	5.24	4.92	4.82	4.97	4.79	4.72	4.47	4.15	4.44	4.80	4.98	5.23	5.55	5.25	4.82	4.77	4.59	4.83	5.02	4.75	4.80	5.09	5.06	4.97	5.17	5.37	5.54	5.61	5.16	4.57	4.36	4.58	4.83	4.64	4.56	4.81	4.88	4.82	4.86	4.93	5.10	5.50	6.31	6.48	5.54	5.20	5.95	6.14	6.16	6.93	6.95	5.66	4.65	5.66	7.65	7.93	6.60	5.95	6.28	6.08	5.85	5.88	5.61	5.40	5.49	5.43	5.01	5.66	6.95	6.41	4.99	5.08	6.25	6.66	7.06	6.03	4.64	5.31	6.22	5.93	5.43	5.32	5.64	6.19	6.48	6.18	5.79	6.18	6.96	6.78	6.01	5.97	6.26	6.27	5.69	5.43	5.83	5.88	6.26	6.32	6.10	6.70	6.51	5.69	5.50	5.51	5.51	
5.23	4.75	4.29	4.46	4.69	4.83	5.02	4.97	4.73	4.86	5.00	5.14	5.39	5.21	4.88	4.88	5.04	5.02	5.08	5.17	5.21	5.34	5.09	4.78	4.80	4.52	4.37	4.40	4.35	4.47	4.63	4.68	5.09	5.71	5.57	5.30	5.29	4.92	4.96	5.07	4.88	5.17	5.45	5.46	5.54	5.76	6.04	6.35	6.72	6.84	6.58	6.28	6.12	5.92	5.29	4.66	4.84	5.28	5.29	5.00	4.78	4.99	5.24	5.82	6.42	5.82	5.08	4.95	5.04	5.49	6.23	6.88	6.17	4.49	4.62	6.36	7.27	7.01	6.39	6.23	6.31	6.12	5.90	5.65	5.46	5.72	6.11	5.80	5.82	6.89	7.12	5.76	5.26	6.04	6.41	7.39	7.10	5.07	4.51	4.93	4.89	4.71	5.08	5.55	5.60	5.87	5.91	5.56	5.53	5.87	6.37	6.50	6.14	5.97	6.14	5.88	5.60	5.95	6.04	6.23	6.46	6.22	6.62	7.24	6.55	5.83	5.77	5.77	
5.57	5.02	4.40	4.33	4.44	4.59	4.86	5.00	4.79	4.75	4.81	4.86	5.02	5.00	4.84	4.85	5.05	5.10	5.02	5.02	5.18	5.46	5.51	5.45	5.49	5.20	4.77	4.37	4.36	4.60	4.63	4.43	4.90	5.88	6.15	6.41	6.58	6.37	6.28	6.24	6.07	6.24	6.38	6.28	6.36	6.33	6.27	6.27	6.24	6.41	6.18	5.84	5.82	5.77	5.21	4.58	4.61	5.19	5.52	5.08	4.27	4.17	4.47	5.02	5.86	5.94	5.57	4.83	4.52	4.77	4.82	5.72	6.36	5.18	4.39	5.21	6.07	6.26	6.17	5.93	6.05	6.16	5.97	5.67	5.30	5.39	6.11	6.35	5.96	6.46	7.27	6.58	5.67	5.62	5.66	6.66	7.58	6.90	6.21	5.91	5.18	4.56	4.78	5.51	5.45	5.39	5.63	5.43	5.31	5.33	5.52	5.97	6.00	5.81	6.05	6.33	6.24	6.12	6.00	5.98	5.86	5.41	5.66	6.82	7.25	6.74	6.40	6.40	
5.87	5.02	4.22	4.13	4.11	4.22	4.49	4.75	4.70	4.68	4.72	4.78	4.81	4.76	4.73	4.82	5.03	5.17	5.12	4.98	5.10	5.47	5.59	5.65	5.97	6.24	6.14	5.36	4.94	5.16	5.25	5.16	5.47	6.08	6.15	6.28	6.48	6.43	6.66	6.68	6.49	6.53	6.42	6.11	6.14	5.96	5.54	5.47	5.27	5.51	5.56	5.35	5.57	5.63	5.12	4.60	4.52	5.00	5.55	5.31	4.76	4.66	4.77	5.00	5.44	5.90	6.31	5.66	4.97	4.86	4.64	5.13	5.89	5.94	5.22	4.95	5.46	5.80	5.95	5.86	5.88	6.01	5.92	5.71	5.28	4.89	5.20	5.90	5.75	5.78	6.51	6.53	6.10	5.92	5.90	6.40	7.42	7.75	7.61	7.44	6.53	5.14	4.91	5.75	5.79	5.49	5.64	5.68	5.56	5.50	5.61	5.97	6.20	6.02	5.76	5.70	5.69	5.52	5.31	5.54	5.64	5.25	5.32	5.66	6.25	6.76	6.72	6.72	
6.23	5.64	4.82	4.49	4.29	4.20	4.41	4.64	4.65	4.70	4.79	4.84	4.71	4.60	4.62	4.67	4.83	4.99	5.05	4.99	4.94	5.11	5.23	5.17	5.42	6.00	6.62	6.71	6.46	6.36	6.28	5.99	5.65	5.55	5.26	5.35	5.71	5.48	5.62	5.71	5.33	5.76	5.89	5.41	5.45	5.49	5.16	5.10	5.03	5.35	5.57	5.38	5.82	6.09	5.52	4.73	4.29	4.64	5.41	5.42	5.24	5.38	5.53	5.57	5.43	5.57	6.34	6.39	5.84	5.35	4.94	5.26	5.41	5.73	5.86	5.48	5.47	5.63	5.83	5.82	5.81	5.90	5.89	5.76	5.47	5.05	4.91	5.38	5.60	5.75	6.12	6.32	6.47	6.40	6.28	6.14	6.41	6.83	6.94	7.08	6.98	5.91	5.22	5.71	5.84	5.65	5.60	5.64	5.60	5.47	5.41	5.55	5.79	5.75	5.59	5.49	5.49	5.37	5.11	5.24	5.45	5.21	5.31	5.30	5.41	6.27	6.62	6.62	
5.83	5.82	5.67	5.40	5.17	4.78	4.65	4.81	4.76	4.75	4.95	5.02	4.65	4.41	4.56	4.69	4.76	4.83	4.86	4.83	4.77	4.87	5.05	5.11	5.06	5.09	5.32	5.62	5.60	5.50	5.30	5.03	4.98	4.92	4.65	4.60	4.92	4.65	4.61	5.00	4.79	4.92	5.24	5.07	5.18	5.52	5.46	5.22	4.99	5.19	5.55	5.31	5.58	6.11	5.85	5.18	4.43	4.50	5.25	5.53	5.57	5.57	5.55	5.67	5.66	5.48	5.87	6.41	6.39	5.78	4.93	5.05	5.24	5.19	5.45	5.59	5.63	5.62	5.73	5.81	5.82	5.86	5.87	5.82	5.67	5.46	5.28	5.35	5.55	5.99	6.44	6.44	6.43	6.11	5.86	5.95	5.82	6.18	6.46	6.40	6.49	5.97	5.44	5.58	5.68	5.66	5.67	5.69	5.66	5.56	5.38	5.25	5.29	5.33	5.35	5.38	5.41	5.35	5.17	5.08	5.04	4.82	5.06	5.46	5.49	5.94	6.32	6.32	
5.24	5.20	5.27	5.30	5.31	5.10	4.78	4.83	4.81	4.73	5.01	5.33	4.91	4.35	4.45	4.70	4.81	4.78	4.85	4.89	4.86	4.96	4.95	4.92	4.85	4.80	4.75	4.68	4.56	4.61	4.61	4.65	4.90	4.99	4.96	4.81	4.70	4.46	4.25	4.64	4.97	4.81	5.00	5.08	5.05	5.49	5.81	5.63	5.19	5.07	5.36	5.23	5.29	5.87	6.00	5.76	5.14	4.68	5.06	5.39	5.56	5.80	5.54	5.26	5.52	5.46	5.37	5.91	6.33	6.11	5.24	4.84	5.15	5.17	5.13	5.33	5.60	5.74	5.81	5.88	5.92	5.95	5.96	5.94	5.85	5.73	5.63	5.51	5.32	5.40	5.94	6.15	6.29	6.11	5.74	5.95	5.82	5.98	6.33	6.32	6.25	5.96	5.71	5.67	5.67	5.65	5.67	5.70	5.68	5.59	5.50	5.37	5.25	5.18	5.19	5.17	5.16	5.14	5.08	5.01	4.99	4.82	4.72	5.04	5.31	5.61	5.88	5.88	
5.23	4.90	4.54	4.58	4.70	4.72	4.64	4.71	4.75	4.64	4.75	5.25	5.13	4.40	4.41	4.72	4.88	4.85	4.91	5.08	5.10	4.97	4.60	4.45	4.50	4.61	4.72	4.89	4.88	4.77	4.70	4.76	4.89	4.78	4.87	5.17	5.01	4.67	4.37	4.51	5.14	5.10	5.08	5.25	5.12	5.25	5.67	5.85	5.56	5.31	5.33	5.25	5.19	5.54	5.61	5.54	5.57	4.98	4.73	4.99	5.16	5.62	5.68	5.28	5.35	5.32	4.92	5.24	5.82	5.92	5.38	4.74	4.84	5.12	5.18	5.27	5.46	5.65	5.83	5.95	6.01	6.04	6.03	6.01	5.95	5.87	5.80	5.68	5.40	5.10	5.26	5.55	5.80	5.90	5.74	5.74	5.64	5.65	5.87	6.03	6.05	5.91	5.81	5.76	5.73	5.70	5.70	5.68	5.66	5.63	5.54	5.41	5.24	5.09	5.07	5.08	5.05	5.07	5.02	4.93	4.91	4.92	4.96	4.94	4.87	5.09	5.30	5.30	
5.50	5.10	4.50	4.37	4.51	4.52	4.46	4.59	4.64	4.63	4.65	4.98	5.10	4.52	4.42	4.67	4.86	4.91	4.81	4.78	4.90	5.03	4.59	4.20	4.40	4.56	4.47	4.55	4.77	4.86	4.73	4.64	4.69	4.55	4.46	5.00	5.29	5.01	4.65	4.52	5.00	5.10	4.80	4.96	5.14	5.18	5.36	5.67	5.76	5.57	5.57	5.61	5.47	5.50	5.44	5.26	5.48	5.30	4.77	4.82	5.15	5.33	5.24	5.27	5.45	5.42	4.80	4.62	5.05	5.01	5.18	4.92	4.82	4.98	5.18	5.39	5.59	5.70	5.85	6.00	6.08	6.13	6.15	6.14	6.08	6.00	5.92	5.84	5.68	5.43	5.30	5.35	5.43	5.49	5.51	5.57	5.62	5.61	5.67	5.77	5.82	5.82	5.77	5.72	5.69	5.63	5.60	5.56	5.53	5.59	5.67	5.78	5.70	5.50	5.47	5.36	5.25	5.30	5.24	5.08	5.00	5.00	5.48	5.88	5.37	4.86	4.80	4.80	
5.78	5.42	4.94	4.74	4.75	4.74	4.51	4.49	4.51	4.56	4.75	5.01	5.04	4.68	4.58	4.57	4.61	4.70	4.65	4.72	4.83	5.16	4.98	4.28	4.36	4.61	4.61	4.50	4.47	4.78	4.97	5.05	4.97	4.66	4.32	4.60	5.05	4.94	4.71	4.55	4.94	5.27	4.90	4.82	5.08	5.31	5.27	5.33	5.64	5.44	5.31	5.54	5.79	5.77	5.61	5.50	5.55	5.50	5.00	4.87	5.38	5.73	5.23	5.07	5.50	5.70	5.38	4.91	4.98	5.08	5.35	5.28	5.16	5.17	5.25	5.48	5.77	5.91	5.99	6.10	6.19	6.23	6.26	6.25	6.21	6.15	6.08	6.00	5.90	5.78	5.68	5.63	5.60	5.57	5.54	5.56	5.68	5.72	5.69	5.64	5.56	5.49	5.51	5.58	5.58	5.58	5.59	5.56	5.50	5.52	5.51	5.71	5.88	5.76	5.86	5.81	5.64	5.65	5.59	5.37	5.28	5.05	5.19	6.09	6.46	5.51	4.76	4.76	
5.75	5.47	5.05	4.86	4.72	4.53	4.42	4.39	4.32	4.28	4.54	5.02	4.93	4.51	4.72	4.84	4.56	4.55	4.49	4.67	4.80	5.01	5.24	4.61	4.31	4.50	4.67	4.70	4.56	4.63	4.81	5.06	5.13	4.80	4.34	4.37	4.73	4.77	4.68	4.53	4.92	5.40	5.11	4.95	5.03	5.29	5.30	5.33	5.73	5.66	5.41	5.47	5.86	5.86	5.52	5.40	5.61	5.71	5.18	4.94	5.33	6.02	5.75	5.13	5.35	5.57	5.55	5.44	5.52	5.76	5.78	5.61	5.48	5.42	5.39	5.52	5.80	6.04	6.17	6.26	6.32	6.35	6.38	6.40	6.35	6.28	6.22	6.15	6.07	5.97	5.86	5.75	5.71	5.72	5.69	5.68	5.71	5.80	5.83	5.66	5.53	5.28	5.26	5.57	5.72	5.77	5.61	5.61	5.71	5.72	5.42	5.16	5.29	5.09	5.07	5.33	5.32	5.45	5.63	5.28	4.98	4.70	4.53	5.12	6.18	6.18	5.61	5.61	
5.63	5.29	4.70	4.68	4.78	4.30	4.09	4.12	4.04	3.90	3.99	4.68	4.91	4.33	4.40	5.01	4.78	4.48	4.49	4.65	4.67	4.58	5.09	5.02	4.55	4.62	4.69	4.63	4.63	4.69	4.77	4.95	5.12	4.88	4.44	4.31	4.46	4.61	4.64	4.48	4.72	5.25	5.14	4.98	5.17	5.25	5.01	5.13	5.69	5.79	5.55	5.60	5.94	5.94	5.66	5.45	5.63	5.89	5.45	5.03	5.09	5.72	5.92	5.43	5.42	5.60	5.65	5.78	5.97	6.16	6.09	5.82	5.64	5.59	5.57	5.69	5.93	6.16	6.33	6.44	6.50	6.52	6.53	6.54	6.48	6.39	6.31	6.25	6.20	6.16	6.07	5.83	5.69	5.76	5.81	5.93	5.97	5.92	6.22	6.32	6.08	5.56	5.28	5.54	5.85	6.12	5.81	5.55	5.68	5.95	6.01	5.62	5.77	5.65	5.02	5.05	5.10	5.13	5.45	5.46	5.09	4.58	4.30	4.55	5.18	5.72	5.88	5.88	
5.77	5.67	4.99	4.77	5.09	4.68	4.31	4.16	3.98	3.73	3.58	4.01	4.46	4.25	4.00	4.67	4.90	4.27	4.27	4.77	4.89	4.53	4.81	5.10	4.76	4.71	4.75	4.57	4.40	4.59	4.81	5.01	5.33	5.15	4.64	4.40	4.34	4.37	4.42	4.52	4.66	4.96	5.08	4.93	5.32	5.53	4.98	4.80	5.29	5.60	5.44	5.63	6.13	6.16	5.85	5.62	5.75	6.04	5.75	5.30	5.22	5.57	5.85	5.71	5.72	5.90	6.06	6.23	6.41	6.51	6.41	6.04	5.74	5.68	5.76	5.96	6.24	6.46	6.60	6.67	6.68	6.64	6.65	6.70	6.65	6.52	6.45	6.36	6.23	6.29	6.45	6.24	5.75	5.63	5.65	5.76	6.15	6.08	6.07	6.64	6.57	5.71	5.37	5.62	5.96	6.30	6.03	5.52	5.45	5.86	6.27	6.12	6.40	6.87	6.54	6.02	5.73	5.71	5.71	5.73	5.63	5.11	4.50	4.34	4.73	5.12	5.25	5.25	
5.31	5.74	5.73	5.46	5.73	5.47	5.04	4.68	4.29	3.90	3.55	3.60	3.75	4.05	4.20	4.61	5.09	4.40	4.14	4.67	4.92	4.56	4.64	4.93	4.78	4.73	4.85	4.84	4.48	4.40	4.51	4.60	5.06	5.38	5.11	4.72	4.64	4.65	4.39	4.50	4.76	4.78	4.87	4.75	5.18	5.67	5.33	5.00	5.19	5.53	5.38	5.48	6.08	6.33	6.05	5.70	5.75	6.18	6.16	5.75	5.60	5.71	5.87	5.91	5.99	6.19	6.39	6.62	6.84	6.93	6.81	6.36	5.87	5.76	5.98	6.32	6.62	6.80	6.87	6.89	6.85	6.75	6.66	6.65	6.64	6.56	6.56	6.59	6.36	6.14	6.36	6.59	6.13	5.57	5.47	5.32	5.74	6.02	5.63	6.43	7.08	6.17	5.45	5.69	6.42	6.89	6.71	6.22	5.90	6.00	6.25	6.21	6.28	6.92	7.62	7.60	6.96	6.74	6.56	6.11	5.71	5.24	4.84	4.47	4.82	5.16	5.00	5.00	
4.76	5.13	5.58	6.00	6.57	6.61	6.11	5.39	4.64	4.27	3.87	3.61	3.31	3.40	3.96	4.62	5.31	4.92	4.50	4.78	5.01	4.63	4.47	4.79	4.74	4.71	4.88	5.09	5.01	4.72	4.62	4.47	4.50	4.96	5.09	4.72	4.49	4.63	4.41	4.38	4.78	4.81	4.72	4.58	4.87	5.46	5.41	5.04	5.03	5.44	5.47	5.44	5.91	6.29	6.32	6.04	5.84	6.11	6.26	6.04	5.94	5.99	6.08	6.11	6.18	6.40	6.65	6.91	7.24	7.46	7.37	6.86	6.18	5.99	6.40	6.84	7.11	7.20	7.06	6.94	6.89	6.87	6.77	6.66	6.68	6.66	6.73	6.79	6.66	6.25	6.00	6.35	6.38	5.65	5.32	4.98	5.17	5.89	5.50	5.92	7.20	7.07	5.94	5.53	6.14	7.06	7.55	7.45	7.11	7.07	6.99	6.85	6.80	6.65	7.06	7.74	7.67	7.51	7.42	7.19	6.52	5.50	5.06	4.70	4.78	5.06	4.94	4.94	
4.61	4.99	5.06	5.05	5.90	6.65	6.95	6.65	5.76	5.36	5.00	4.43	3.84	3.20	3.19	3.80	4.80	4.88	4.68	4.83	5.20	5.02	4.52	4.65	4.66	4.68	4.75	4.88	5.20	5.26	5.36	5.11	4.61	4.75	4.84	4.72	4.57	4.53	4.40	4.31	4.69	4.85	4.66	4.57	4.70	5.23	5.43	5.08	4.82	5.08	5.45	5.61	5.95	6.18	6.31	6.27	6.02	6.06	6.16	6.11	6.11	6.17	6.24	6.30	6.33	6.46	6.69	6.92	7.30	7.73	7.78	7.34	6.76	6.63	7.12	7.48	7.56	7.66	7.48	7.09	6.91	6.97	7.18	7.00	6.63	6.57	6.99	7.15	7.09	7.07	6.72	6.66	6.89	6.69	6.41	6.16	5.98	6.76	6.64	6.04	6.75	7.45	7.05	6.41	6.07	6.29	6.85	7.21	7.20	7.28	7.18	6.68	6.52	6.21	6.19	6.75	7.07	7.50	7.83	8.04	8.06	6.99	5.73	5.07	4.83	4.92	4.93	4.93	
3.95	4.63	4.78	4.19	4.45	5.14	6.04	6.72	6.66	6.47	6.11	5.71	5.30	4.32	3.56	3.54	4.20	4.53	4.47	4.44	4.76	4.96	4.63	4.57	4.54	4.58	4.67	4.54	4.66	4.84	5.27	5.57	5.16	5.03	4.95	4.72	4.71	4.62	4.38	4.21	4.55	4.91	4.74	4.61	4.69	5.09	5.43	5.33	5.07	4.85	5.01	5.42	5.94	6.16	6.20	6.24	6.13	6.10	6.14	6.14	6.19	6.30	6.39	6.51	6.52	6.48	6.71	6.95	7.22	7.68	7.70	7.24	7.85	7.29	7.96	8.28	7.97	8.08	8.29	7.84	7.12	6.35	6.55	7.07	6.54	6.14	6.92	7.76	8.00	8.14	8.31	8.21	7.95	7.90	7.92	7.79	7.40	7.41	7.60	7.16	6.93	7.15	7.10	6.87	6.44	6.00	5.94	6.10	6.06	6.16	6.47	6.20	5.81	5.54	5.59	5.90	5.98	6.32	6.90	7.30	8.01	8.16	7.04	5.99	5.54	5.31	5.21	5.21	
3.65	4.19	4.63	4.37	4.35	4.59	4.96	5.29	5.61	6.12	5.83	5.14	5.29	5.03	4.29	3.96	4.13	4.46	4.48	4.34	4.41	4.56	4.40	4.37	4.51	4.53	4.74	4.67	4.52	4.57	4.83	5.39	5.45	5.35	5.24	4.85	4.72	4.74	4.54	4.26	4.33	4.84	4.90	4.63	4.66	5.00	5.28	5.34	5.39	5.24	4.98	5.10	5.64	5.99	6.09	6.15	6.16	6.13	6.16	6.19	6.24	6.37	6.50	6.72	6.94	6.76	6.84	7.07	7.18	7.57	7.30	6.49	6.55	7.03	7.91	8.87	8.40	8.12	8.66	8.89	8.40	6.90	6.46	7.52	7.57	6.60	6.48	7.13	7.57	7.56	7.71	8.03	7.59	7.00	6.81	6.79	6.66	6.48	6.66	6.77	6.70	6.67	6.53	6.43	6.42	6.20	5.92	5.75	5.66	5.75	5.98	6.07	5.77	5.27	5.18	5.34	5.43	5.49	5.85	6.31	6.85	7.88	8.04	7.26	6.72	6.07	5.57	5.57	
3.82	4.19	4.68	4.79	4.91	5.23	5.29	4.64	4.45	5.45	5.69	4.69	4.58	4.94	4.57	4.15	4.12	4.46	4.75	4.78	4.83	4.80	4.51	4.21	4.34	4.53	4.77	4.93	4.77	4.65	4.72	4.97	5.06	5.28	5.45	5.07	4.81	4.79	4.69	4.48	4.17	4.39	4.87	4.69	4.52	4.90	5.14	5.11	5.23	5.36	5.23	5.16	5.52	5.92	6.06	6.07	6.09	6.09	6.12	6.18	6.28	6.43	6.56	6.73	7.18	7.05	6.90	7.22	7.34	7.60	7.22	6.20	6.24	6.63	6.79	8.48	8.98	8.16	8.32	9.19	9.72	9.15	8.17	7.76	7.85	7.15	6.14	5.93	6.10	6.13	6.29	6.94	7.11	6.62	6.30	6.29	6.18	6.08	6.05	6.01	6.03	6.12	6.16	6.09	6.03	5.89	5.78	5.59	5.54	5.76	5.90	6.05	6.01	5.68	5.41	5.22	5.26	5.27	5.41	5.79	5.94	6.59	7.36	7.20	6.87	6.66	6.39	6.39	
4.10	4.38	4.81	4.70	4.46	4.89	5.70	5.15	4.35	5.14	5.91	5.50	4.95	4.80	4.59	4.24	4.13	4.37	4.71	4.86	4.96	5.03	4.85	4.39	4.05	4.09	4.31	4.63	4.76	4.60	4.66	4.85	4.58	4.72	5.32	5.19	4.77	4.62	4.58	4.67	4.48	4.12	4.54	4.78	4.39	4.68	5.02	4.94	4.93	5.05	5.18	5.27	5.60	5.97	6.01	5.94	5.95	6.00	6.05	6.11	6.23	6.41	6.52	6.52	7.14	7.44	6.84	6.89	7.49	7.72	7.05	5.68	5.83	6.61	6.00	7.26	9.18	9.13	8.45	8.57	8.98	8.98	8.52	7.58	7.16	6.90	6.36	6.15	6.17	6.14	6.34	6.68	6.94	6.96	6.55	6.32	6.20	6.13	6.14	6.01	5.79	5.70	5.80	6.04	6.23	6.15	6.18	6.04	5.80	5.87	6.10	6.18	6.05	5.78	5.53	5.27	5.15	5.15	5.15	5.32	5.34	5.50	5.94	6.05	5.94	6.40	6.91	6.91	
3.93	4.20	4.72	4.56	4.13	4.32	5.19	5.32	4.56	4.76	5.37	5.41	5.39	5.11	4.80	4.40	4.11	4.26	4.54	4.68	4.65	4.66	4.73	4.64	4.37	4.13	4.02	4.19	4.60	4.69	4.75	5.03	4.75	4.44	4.94	5.39	5.13	4.66	4.46	4.61	4.83	4.39	4.20	4.70	4.56	4.48	4.80	4.87	4.86	4.95	5.10	5.31	5.81	6.54	5.79	5.64	5.76	5.89	5.89	6.00	6.28	6.61	6.86	6.63	7.11	8.33	8.14	7.95	9.72	9.67	8.03	6.01	5.60	6.57	6.20	6.16	7.84	9.28	9.09	8.49	8.25	8.35	8.47	8.01	7.55	7.13	6.80	6.74	6.76	6.61	6.57	6.63	6.57	6.70	6.65	6.49	6.37	6.30	6.47	6.63	6.48	6.30	6.16	6.35	6.85	7.13	7.17	7.11	6.89	6.56	6.61	6.74	6.53	6.12	5.82	5.53	5.13	5.06	5.12	5.19	5.21	5.28	5.44	5.67	5.59	5.97	6.69	6.69	
3.49	3.74	4.54	4.81	4.61	4.74	5.02	4.92	4.49	4.56	4.70	4.78	5.11	5.08	4.99	4.73	4.24	4.26	4.56	4.84	4.90	4.75	4.71	4.74	4.73	4.65	4.31	4.12	4.38	4.50	4.60	4.84	4.80	4.48	4.52	5.09	5.31	4.84	4.43	4.33	4.67	4.64	4.08	4.33	4.65	4.57	4.71	4.85	4.89	5.00	5.17	5.37	5.67	5.83	5.43	5.27	5.55	6.09	6.15	6.14	6.67	7.21	7.89	7.91	8.02	9.61	10.64	10.90	11.84	10.73	9.08	7.64	6.27	6.15	6.12	5.63	6.02	7.66	8.84	8.87	8.22	7.98	8.18	7.94	7.78	7.56	7.10	6.74	6.50	6.39	6.40	6.50	6.51	6.38	6.38	6.66	6.90	6.78	6.75	6.96	6.99	6.93	6.69	6.29	6.13	6.35	6.61	6.73	6.94	6.88	6.78	7.03	7.17	6.99	6.78	6.43	5.74	5.20	5.11	5.18	5.16	5.27	5.40	5.49	5.47	5.83	6.36	6.36	
3.69	3.61	3.98	4.47	4.67	5.00	5.46	5.08	4.42	4.63	4.55	4.51	4.91	4.79	4.68	4.79	4.49	4.31	4.54	4.83	5.06	4.99	4.69	4.58	4.49	4.49	4.32	4.14	4.35	4.30	4.46	4.70	4.56	4.35	4.31	4.69	5.08	4.93	4.63	4.24	4.37	4.76	4.34	4.19	4.54	4.64	4.74	4.87	4.92	5.02	5.19	5.34	5.42	5.36	5.14	5.01	5.11	5.84	6.37	6.23	6.77	7.48	8.46	9.33	9.41	9.77	10.28	10.29	9.84	8.65	7.69	7.26	6.31	5.52	5.54	5.65	5.90	6.90	8.08	8.54	7.97	7.36	7.43	7.40	7.16	7.08	6.91	6.62	6.37	6.26	6.29	6.33	6.47	6.41	5.99	5.93	6.37	6.47	6.39	6.46	6.43	6.38	6.32	6.04	5.68	5.53	5.65	5.77	5.93	6.25	6.30	6.47	6.77	6.79	6.90	6.97	6.77	6.02	5.38	5.26	5.11	5.11	5.40	5.65	5.64	5.80	6.02	6.02	
4.12	3.92	3.79	3.92	4.25	4.70	5.52	5.52	4.63	4.71	4.63	4.35	4.73	4.83	4.48	4.47	4.50	4.34	4.43	4.58	4.72	4.90	4.58	4.42	4.56	4.42	4.19	4.08	4.36	4.30	4.36	4.79	4.66	4.32	4.24	4.43	4.72	4.79	4.83	4.50	4.19	4.60	4.59	4.32	4.47	4.57	4.68	4.83	4.90	4.99	5.10	5.17	5.16	5.13	4.99	4.89	4.84	5.21	6.11	6.49	7.11	7.76	8.22	8.64	8.45	8.38	8.75	8.81	8.31	7.81	7.23	6.77	6.39	5.59	5.26	5.62	6.35	7.43	7.92	7.59	7.12	6.74	6.61	6.75	6.62	6.49	6.52	6.47	6.38	6.29	6.26	6.22	6.24	6.39	6.10	5.67	5.76	5.86	5.91	6.10	6.11	5.92	5.85	5.98	5.88	5.66	5.60	5.58	5.45	5.62	5.76	5.90	6.23	6.26	6.39	6.53	6.74	6.50	6.03	5.96	5.85	5.45	5.38	5.80	6.02	5.99	5.91	5.91	
4.37	4.25	4.07	3.87	3.86	4.25	5.33	5.85	5.03	4.66	4.65	4.34	4.31	4.55	4.48	4.37	4.38	4.33	4.37	4.42	4.36	4.70	4.60	4.24	4.66	4.70	4.52	4.29	4.31	4.33	4.22	4.60	4.62	4.40	4.31	4.23	4.30	4.50	4.64	4.69	4.33	4.25	4.47	4.40	4.42	4.52	4.59	4.71	4.81	4.87	4.91	4.91	4.79	4.80	4.84	4.73	4.74	5.12	5.72	6.19	6.77	7.21	7.47	7.73	7.55	7.69	8.24	8.42	7.99	7.64	7.47	6.91	6.46	5.99	5.49	5.52	6.39	9.00	8.99	6.77	6.11	6.02	6.04	6.22	6.36	6.30	6.31	6.33	6.24	6.19	6.24	6.26	6.18	6.19	6.11	5.85	5.69	5.61	5.60	5.74	5.90	5.82	5.69	5.82	5.89	5.73	5.62	5.57	5.48	5.57	5.63	5.64	5.96	6.04	6.09	6.39	6.63	6.59	6.46	6.41	6.49	6.15	5.56	5.63	5.96	6.22	6.36	6.36	
4.45	4.37	4.25	4.09	3.81	3.76	4.66	5.85	5.61	4.83	4.65	4.56	4.39	4.29	4.29	4.36	4.32	4.29	4.47	4.58	4.26	4.43	4.50	4.11	4.40	4.48	4.53	4.47	4.25	4.15	4.17	4.49	4.39	4.34	4.53	4.37	4.15	4.31	4.35	4.52	4.59	4.28	4.29	4.35	4.35	4.44	4.49	4.59	4.67	4.71	4.68	4.62	4.37	4.26	4.47	4.34	4.04	4.21	4.56	4.53	4.86	5.66	6.62	7.75	7.82	7.49	7.71	7.73	7.48	7.24	7.19	6.75	5.99	5.63	5.56	5.80	6.61	7.99	7.73	6.23	5.63	5.60	5.82	5.96	6.11	6.19	6.18	6.23	6.22	6.13	6.11	6.13	6.14	6.11	6.01	5.97	5.80	5.62	5.54	5.62	5.80	5.76	5.66	5.65	5.77	5.80	5.72	5.64	5.52	5.57	5.64	5.59	5.81	5.93	5.82	6.20	6.66	6.64	6.32	5.95	6.02	6.10	5.77	5.67	5.63	5.77	6.07	6.07	
4.51	4.46	4.38	4.27	4.01	3.70	4.01	5.20	5.98	5.63	5.09	4.86	4.84	4.60	4.29	4.32	4.35	4.28	4.50	4.87	4.62	4.43	4.34	4.10	4.30	4.31	4.27	4.53	4.40	3.95	4.08	4.56	4.42	4.21	4.45	4.41	4.12	4.18	4.22	4.23	4.38	4.30	4.22	4.23	4.25	4.31	4.36	4.43	4.50	4.52	4.45	4.33	3.92	3.61	3.90	4.11	3.88	3.67	3.97	4.17	4.39	5.16	6.09	7.35	7.82	7.19	7.02	7.09	6.98	6.81	6.70	6.21	5.53	5.32	5.64	6.34	7.12	7.62	7.28	6.39	5.80	5.62	5.80	5.98	6.08	6.18	6.16	6.18	6.21	6.18	6.12	5.99	6.04	6.09	5.94	5.94	5.91	5.74	5.64	5.71	5.85	5.83	5.78	5.66	5.59	5.65	5.68	5.62	5.45	5.43	5.47	5.50	5.72	5.90	5.70	5.56	5.75	6.02	6.04	5.73	5.61	5.74	5.82	5.83	5.80	5.71	5.65	5.65	
4.54	4.51	4.44	4.35	4.20	3.92	3.77	4.28	5.28	5.87	5.68	5.12	4.94	4.83	4.50	4.38	4.43	4.34	4.38	4.81	4.96	4.65	4.33	4.17	4.42	4.51	4.17	4.51	4.76	4.22	3.99	4.42	4.51	4.25	4.31	4.27	4.10	4.04	4.09	4.08	4.09	4.07	4.06	4.09	4.11	4.15	4.19	4.24	4.30	4.32	4.25	4.21	3.77	3.08	3.07	3.48	3.82	3.86	4.10	4.53	4.79	5.38	6.26	6.92	7.29	6.87	6.39	6.27	6.15	5.99	5.81	5.36	5.41	5.93	6.36	7.08	7.73	7.73	7.19	6.57	6.23	6.06	6.08	6.19	6.22	6.23	6.20	6.20	6.22	6.28	6.39	6.30	6.20	6.28	6.14	6.01	6.01	5.85	5.70	5.75	5.86	5.82	5.82	5.78	5.60	5.57	5.66	5.63	5.50	5.48	5.38	5.36	5.52	5.71	5.74	5.56	5.49	5.72	5.98	5.93	5.71	5.58	5.76	6.03	6.23	6.29	6.22	6.22	
4.58	4.55	4.49	4.42	4.32	4.13	3.82	3.78	4.18	4.94	5.52	5.22	4.84	4.66	4.52	4.41	4.45	4.44	4.35	4.66	5.02	4.87	4.37	4.10	4.45	4.61	4.12	4.22	4.56	4.39	4.02	4.09	4.30	4.31	4.34	4.18	4.07	3.99	3.96	3.96	3.93	3.88	3.85	3.88	3.90	3.94	3.98	4.02	4.07	4.11	3.93	3.89	3.83	3.06	2.60	2.83	3.24	3.68	4.18	4.69	5.07	5.79	7.83	7.38	6.53	6.31	5.90	5.70	5.46	5.24	5.39	5.78	6.39	6.94	7.28	7.57	7.84	7.61	6.78	6.14	6.25	6.29	6.21	6.20	6.26	6.27	6.19	6.14	6.22	6.33	6.46	6.44	6.32	6.34	6.28	6.14	6.13	6.06	5.80	5.68	5.79	5.79	5.79	5.89	5.75	5.65	5.79	5.79	5.66	5.63	5.47	5.30	5.27	5.35	5.63	5.69	5.65	5.77	5.99	6.14	6.01	5.63	5.53	5.81	5.93	6.09	6.33	6.33	
4.59	4.57	4.52	4.47	4.40	4.30	4.10	3.88	3.82	4.16	4.91	5.12	4.87	4.57	4.46	4.39	4.43	4.44	4.25	4.48	4.87	5.08	4.70	4.05	4.29	4.54	4.22	4.27	4.33	4.29	4.20	4.13	4.12	4.17	4.30	4.16	4.02	3.98	3.92	3.85	3.79	3.72	3.67	3.67	3.68	3.70	3.71	3.75	3.80	3.91	3.74	3.38	3.49	3.09	2.50	2.67	3.08	3.52	4.13	4.82	5.37	5.89	6.63	6.34	5.80	5.71	5.47	5.35	5.36	5.25	5.53	6.43	7.06	7.29	7.49	7.53	7.53	7.36	6.33	5.20	6.34	6.55	6.46	6.28	6.21	6.26	6.27	6.16	6.09	6.16	6.32	6.31	6.20	6.19	6.18	6.08	6.00	6.01	5.91	5.72	5.75	5.86	5.89	6.05	5.96	5.69	5.78	5.92	5.79	5.70	5.66	5.50	5.37	5.32	5.53	5.72	5.64	5.69	5.81	5.96	6.02	5.77	5.52	5.58	5.68	5.88	6.10	6.10	
4.61	4.59	4.55	4.51	4.46	4.39	4.30	4.17	4.02	4.03	4.40	4.79	4.81	4.57	4.38	4.25	4.32	4.36	4.19	4.24	4.37	4.72	4.82	4.36	4.36	4.42	4.21	4.32	4.39	4.26	4.18	4.24	4.16	4.08	4.14	4.09	3.98	3.91	3.86	3.78	3.68	3.58	3.51	3.47	3.46	3.45	3.43	3.44	3.46	3.58	3.60	3.22	2.89	2.58	2.18	2.48	3.13	3.66	4.18	4.80	5.38	5.76	5.87	5.57	5.26	5.23	5.19	5.16	5.40	5.66	5.89	6.49	7.06	7.13	7.20	7.36	7.29	7.00	6.40	6.05	6.39	6.52	6.53	6.48	6.35	6.34	6.35	6.22	6.04	5.95	6.07	6.21	6.21	6.17	6.17	6.11	5.97	5.88	5.82	5.64	5.56	5.73	5.85	6.01	6.04	5.80	5.73	5.92	5.94	5.76	5.82	5.86	5.84	5.71	5.67	5.84	5.76	5.70	5.75	5.82	5.85	5.71	5.58	5.59	5.72	5.91	6.03	6.03	
4.62	4.60	4.57	4.54	4.50	4.45	4.41	4.35	4.29	4.23	4.26	4.44	4.57	4.51	4.33	4.14	4.14	4.21	4.18	4.14	4.09	4.21	4.37	4.33	4.41	4.38	4.18	4.15	4.25	4.18	4.03	4.09	4.13	4.07	4.04	4.01	3.93	3.86	3.78	3.70	3.59	3.47	3.36	3.27	3.22	3.17	3.11	3.05	3.00	2.98	3.02	2.79	2.09	1.76	1.86	2.48	3.20	3.84	4.37	4.87	5.34	5.64	5.67	5.45	5.18	5.07	5.01	5.01	5.19	5.53	5.91	6.30	6.72	6.93	6.98	7.05	6.92	6.57	6.18	6.04	6.21	6.26	6.31	6.49	6.49	6.42	6.35	6.17	6.01	5.89	5.85	5.95	6.09	6.12	6.13	6.16	6.05	5.91	5.82	5.57	5.24	5.27	5.42	5.66	5.88	5.83	5.73	5.79	5.95	5.90	5.87	5.89	5.91	5.82	5.68	5.78	5.79	5.69	5.68	5.74	5.76	5.68	5.60	5.61	5.68	5.84	5.95	5.95	
4.63	4.61	4.58	4.56	4.53	4.49	4.46	4.43	4.41	4.40	4.38	4.39	4.42	4.42	4.33	4.20	4.12	4.14	4.17	4.16	4.14	4.13	4.09	4.08	4.21	4.27	4.16	4.11	4.15	4.12	4.01	4.00	4.06	4.05	4.00	3.95	3.86	3.79	3.70	3.60	3.47	3.35	3.22	3.09	2.99	2.90	2.80	2.65	2.52	2.40	2.32	2.07	1.59	1.96	2.07	2.81	3.38	3.91	4.42	4.88	5.25	5.49	5.53	5.39	5.19	5.07	5.00	5.02	5.20	5.44	5.75	6.10	6.41	6.60	6.68	6.70	6.56	6.28	6.05	6.02	6.21	6.27	6.12	6.14	6.14	6.12	6.18	6.08	5.97	5.90	5.82	5.77	5.81	5.87	5.90	5.99	6.08	6.03	6.04	5.88	5.32	5.09	5.15	5.22	5.36	5.42	5.50	5.63	5.75	5.82	5.79	5.76	5.80	5.75	5.63	5.64	5.69	5.67	5.65	5.68	5.72	5.71	5.67	5.66	5.69	5.79	5.88	5.88	
4.63	4.61	4.59	4.57	4.55	4.52	4.50	4.48	4.46	4.45	4.44	4.43	4.40	4.37	4.34	4.28	4.20	4.16	4.17	4.19	4.21	4.20	4.14	4.07	4.11	4.18	4.12	4.11	4.13	4.11	4.04	3.99	4.00	4.00	3.95	3.90	3.83	3.74	3.64	3.52	3.37	3.22	3.07	2.91	2.77	2.66	2.56	2.41	2.25	2.08	1.92	1.77	1.82	2.13	2.56	3.03	3.50	3.95	4.39	4.77	5.07	5.26	5.34	5.27	5.13	5.07	5.06	5.08	5.23	5.46	5.69	5.94	6.21	6.33	6.34	6.35	6.29	6.12	5.97	5.94	6.08	6.21	6.07	5.93	5.89	5.88	5.97	6.00	5.95	5.91	5.87	5.82	5.79	5.82	5.83	5.88	6.10	6.26	6.42	6.49	6.03	5.55	5.52	5.48	5.31	5.23	5.25	5.39	5.51	5.58	5.62	5.63	5.67	5.67	5.62	5.61	5.64	5.66	5.69	5.70	5.70	5.70	5.67	5.67	5.68	5.75	5.84	5.84	
4.63	4.61	4.60	4.58	4.56	4.54	4.52	4.50	4.48	4.47	4.46	4.44	4.41	4.38	4.35	4.31	4.25	4.19	4.15	4.16	4.18	4.21	4.20	4.12	4.11	4.14	4.11	4.08	4.08	4.06	4.02	3.98	3.96	3.94	3.89	3.84	3.80	3.72	3.61	3.48	3.31	3.13	2.95	2.75	2.58	2.45	2.38	2.29	2.12	1.94	1.84	1.86	2.01	2.25	2.55	2.97	3.44	3.87	4.26	4.59	4.83	4.98	5.08	5.10	5.06	5.03	5.06	5.13	5.27	5.47	5.71	5.92	6.10	6.18	6.14	6.09	6.04	5.94	5.80	5.72	5.75	5.88	5.96	5.90	5.84	5.80	5.85	5.92	5.93	5.91	5.88	5.88	5.88	5.92	5.93	5.88	5.95	6.15	6.48	6.82	6.79	6.33	6.11	6.19	5.93	5.45	5.22	5.23	5.31	5.40	5.46	5.52	5.57	5.59	5.60	5.62	5.62	5.61	5.63	5.64	5.66	5.66	5.64	5.67	5.67	5.70	5.77	5.77	
4.62	4.61	4.60	4.58	4.56	4.55	4.53	4.51	4.50	4.48	4.47	4.45	4.42	4.40	4.37	4.34	4.30	4.25	4.20	4.16	4.15	4.16	4.18	4.14	4.10	4.11	4.10	4.07	4.05	4.03	3.99	3.96	3.94	3.90	3.85	3.79	3.75	3.69	3.59	3.48	3.31	3.12	2.89	2.63	2.42	2.30	2.25	2.18	2.04	1.87	1.83	1.88	1.92	2.02	2.32	2.79	3.30	3.76	4.14	4.45	4.68	4.82	4.90	4.96	4.97	4.97	5.00	5.07	5.23	5.40	5.59	5.78	5.97	6.10	6.08	6.01	5.94	5.85	5.71	5.60	5.57	5.59	5.70	5.81	5.81	5.76	5.79	5.86	5.88	5.89	5.87	5.85	5.86	5.94	5.98	5.93	5.87	5.82	5.93	6.24	6.46	6.30	5.99	6.08	6.16	5.68	5.27	5.20	5.30	5.42	5.46	5.52	5.55	5.58	5.58	5.60	5.60	5.58	5.60	5.62	5.64	5.66	5.64	5.61	5.58	5.55	5.54	5.54	
4.62	4.61	4.60	4.58	4.57	4.55	4.54	4.52	4.50	4.49	4.47	4.45	4.43	4.41	4.38	4.35	4.32	4.28	4.24	4.20	4.17	4.15	4.16	4.14	4.10	4.09	4.09	4.06	4.03	4.00	3.96	3.94	3.92	3.88	3.83	3.76	3.70	3.64	3.56	3.46	3.34	3.16	2.90	2.59	2.34	2.23	2.18	2.10	1.94	1.76	1.61	1.41	1.47	1.80	2.23	2.74	3.25	3.69	4.07	4.37	4.58	4.70	4.77	4.78	4.80	4.82	4.92	5.07	5.23	5.38	5.55	5.69	5.79	5.87	5.88	5.83	5.78	5.69	5.53	5.44	5.54	5.62	5.68	5.90	6.06	5.97	5.84	5.79	5.74	5.72	5.75	5.76	5.71	5.73	5.83	5.82	5.75	5.64	5.59	5.77	5.99	5.97	5.79	5.87	6.11	5.94	5.55	5.27	5.36	5.51	5.50	5.51	5.52	5.53	5.55	5.58	5.59	5.58	5.56	5.56	5.56	5.56	5.62	5.67	5.63	5.45	5.32	5.32	
4.62	4.61	4.59	4.58	4.57	4.55	4.54	4.52	4.51	4.49	4.47	4.45	4.43	4.41	4.38	4.36	4.33	4.30	4.26	4.22	4.19	4.16	4.15	4.12	4.09	4.07	4.06	4.04	4.01	3.98	3.94	3.90	3.88	3.86	3.81	3.74	3.66	3.59	3.52	3.43	3.34	3.20	2.96	2.67	2.41	2.29	2.22	2.08	1.86	1.60	1.39	1.11	1.25	1.96	2.43	2.86	3.29	3.69	4.03	4.32	4.55	4.72	4.90	5.02	5.06	5.04	5.04	5.23	5.47	5.54	5.60	5.68	5.73	5.72	5.69	5.66	5.73	5.89	5.95	5.95	6.02	6.10	6.00	5.99	6.14	6.19	6.09	5.92	5.85	5.85	5.90	6.01	5.98	5.80	5.67	5.65	5.66	5.62	5.56	5.63	5.86	6.00	5.91	5.92	6.14	6.27	6.10	5.67	5.48	5.56	5.52	5.49	5.51	5.52	5.52	5.54	5.56	5.56	5.53	5.51	5.49	5.40	5.44	5.74	6.01	5.81	5.55	5.55	
4.61	4.60	4.59	4.58	4.56	4.55	4.54	4.52	4.50	4.49	4.47	4.45	4.43	4.41	4.39	4.36	4.33	4.30	4.27	4.22	4.19	4.17	4.16	4.12	4.08	4.05	4.05	4.02	3.98	3.95	3.92	3.86	3.82	3.81	3.77	3.70	3.62	3.55	3.47	3.37	3.30	3.17	2.96	2.82	2.66	2.45	2.32	2.12	1.87	1.62	1.53	1.70	2.03	2.45	2.80	3.11	3.40	3.72	4.03	4.35	4.68	4.92	5.20	5.52	5.70	5.70	5.48	5.33	5.45	5.54	5.58	5.68	5.76	5.79	5.85	5.95	6.13	6.50	6.75	6.75	6.66	6.60	6.40	6.10	6.04	6.27	6.55	6.64	6.53	6.45	6.38	6.33	6.35	6.29	5.98	5.73	5.69	5.68	5.64	5.61	5.72	5.99	6.16	6.07	6.04	6.23	6.23	5.96	5.69	5.64	5.60	5.50	5.48	5.48	5.48	5.48	5.47	5.51	5.52	5.57	5.63	5.44	5.18	5.36	5.81	5.96	5.92	5.92	
4.61	4.60	4.59	4.57	4.56	4.55	4.53	4.52	4.50	4.49	4.47	4.45	4.43	4.41	4.39	4.36	4.33	4.31	4.27	4.23	4.20	4.17	4.15	4.12	4.07	4.04	4.03	4.00	3.97	3.92	3.89	3.85	3.78	3.75	3.73	3.66	3.57	3.50	3.41	3.30	3.20	3.05	2.83	2.69	2.64	2.54	2.41	2.21	1.98	1.82	1.85	2.14	2.47	2.77	3.06	3.36	3.60	3.82	4.10	4.39	4.73	4.92	5.00	5.18	5.42	5.60	5.55	5.34	5.30	5.40	5.50	5.67	5.89	6.01	6.12	6.24	6.20	6.17	6.28	6.37	6.44	6.54	6.68	6.59	6.36	6.37	6.53	6.72	6.69	6.47	6.32	6.18	6.11	6.25	6.19	5.91	5.78	5.66	5.52	5.49	5.52	5.63	5.94	6.00	5.74	5.76	5.85	5.79	5.71	5.70	5.70	5.61	5.50	5.42	5.39	5.41	5.36	5.33	5.36	5.45	5.78	5.78	5.24	5.06	5.12	5.32	5.59	5.59	
4.60	4.59	4.58	4.57	4.56	4.54	4.53	4.52	4.50	4.48	4.47	4.45	4.43	4.41	4.38	4.36	4.33	4.31	4.28	4.24	4.20	4.18	4.16	4.11	4.07	4.04	4.01	3.98	3.96	3.91	3.87	3.83	3.77	3.72	3.68	3.61	3.52	3.45	3.35	3.22	3.08	2.91	2.70	2.56	2.55	2.55	2.47	2.32	2.16	2.08	2.17	2.41	2.68	2.91	3.15	3.47	3.75	3.92	4.06	4.19	4.41	4.58	4.60	4.65	4.81	5.02	5.18	5.23	5.27	5.37	5.45	5.59	5.86	6.00	5.97	5.85	5.70	5.57	5.57	5.63	5.74	5.85	6.09	6.36	6.23	5.97	5.83	5.85	5.95	5.95	5.92	5.92	5.87	5.86	5.93	5.87	5.84	5.78	5.48	5.28	5.34	5.33	5.45	5.63	5.64	5.59	5.60	5.57	5.55	5.61	5.70	5.74	5.72	5.64	5.51	5.48	5.46	5.30	5.20	5.16	5.47	5.80	5.38	5.19	5.29	5.14	5.13	5.13	
4.60	4.59	4.58	4.57	4.55	4.54	4.53	4.51	4.50	4.48	4.46	4.44	4.42	4.40	4.38	4.36	4.33	4.31	4.28	4.24	4.20	4.18	4.17	4.13	4.07	4.04	4.01	3.97	3.93	3.88	3.84	3.81	3.76	3.70	3.64	3.57	3.49	3.41	3.30	3.16	3.01	2.84	2.66	2.55	2.54	2.55	2.51	2.42	2.35	2.33	2.42	2.61	2.83	3.00	3.15	3.39	3.67	3.89	3.97	4.00	4.15	4.34	4.46	4.57	4.72	4.87	5.02	5.11	5.20	5.35	5.41	5.37	5.41	5.46	5.47	5.46	5.42	5.35	5.31	5.31	5.36	5.35	5.31	5.44	5.55	5.50	5.51	5.55	5.57	5.67	5.58	5.47	5.52	5.55	5.55	5.64	5.85	6.04	5.99	5.65	5.48	5.44	5.46	5.53	5.63	5.77	5.76	5.62	5.51	5.49	5.57	5.73	5.83	5.92	5.88	5.69	5.59	5.38	5.16	5.12	5.28	5.65	5.52	5.36	5.61	5.40	5.06	5.06	
4.59	4.58	4.57	4.56	4.55	4.54	4.52	4.51	4.49	4.48	4.46	4.44	4.42	4.40	4.38	4.36	4.33	4.30	4.28	4.24	4.20	4.17	4.16	4.13	4.08	4.05	4.01	3.99	3.96	3.89	3.83	3.78	3.74	3.69	3.62	3.54	3.47	3.38	3.27	3.13	2.99	2.84	2.70	2.61	2.59	2.59	2.57	2.53	2.50	2.52	2.61	2.79	2.99	3.09	3.19	3.35	3.57	3.81	3.97	4.05	4.17	4.33	4.46	4.59	4.75	4.88	5.00	5.08	5.11	5.17	5.27	5.24	5.21	5.22	5.24	5.32	5.37	5.34	5.27	5.24	5.25	5.29	5.26	5.19	5.19	5.22	5.33	5.44	5.39	5.48	5.60	5.52	5.57	5.78	5.80	5.74	5.92	6.03	6.09	6.01	5.81	5.60	5.62	5.68	5.61	5.78	5.99	5.89	5.69	5.62	5.57	5.56	5.55	5.64	5.91	5.94	5.80	5.54	5.17	5.12	5.33	5.61	5.63	5.33	5.39	5.29	4.96	4.96	
4.59	4.58	4.57	4.56	4.55	4.53	4.52	4.51	4.49	4.47	4.46	4.44	4.42	4.40	4.38	4.35	4.33	4.30	4.28	4.25	4.21	4.18	4.16	4.13	4.08	4.05	4.01	3.98	3.99	3.95	3.87	3.80	3.74	3.69	3.61	3.53	3.45	3.36	3.26	3.13	3.01	2.89	2.78	2.70	2.67	2.66	2.65	2.64	2.64	2.67	2.73	2.94	3.19	3.27	3.33	3.49	3.66	3.81	3.98	4.13	4.24	4.37	4.49	4.62	4.74	4.85	4.94	5.02	5.07	5.08	5.15	5.19	5.24	5.30	5.28	5.25	5.27	5.23	5.13	5.14	5.14	5.16	5.30	5.31	5.09	5.09	5.29	5.46	5.35	5.40	5.83	6.05	6.12	6.25	6.32	6.18	6.05	5.98	5.89	6.00	6.15	5.77	5.46	5.59	5.59	5.60	5.86	6.04	5.79	5.61	5.68	5.73	5.60	5.55	5.86	6.12	6.09	5.85	5.44	5.17	5.29	5.40	5.49	5.47	5.52	5.48	5.23	5.23	
4.58	4.57	4.56	4.55	4.54	4.53	4.52	4.50	4.49	4.47	4.45	4.44	4.42	4.40	4.37	4.35	4.33	4.30	4.27	4.25	4.21	4.18	4.17	4.14	4.10	4.05	4.01	3.96	3.94	3.92	3.87	3.81	3.75	3.69	3.62	3.54	3.46	3.37	3.27	3.16	3.06	2.96	2.88	2.81	2.77	2.76	2.75	2.76	2.77	2.80	2.83	2.99	3.29	3.44	3.48	3.62	3.80	3.89	4.01	4.15	4.27	4.39	4.50	4.62	4.73	4.84	4.92	5.00	5.07	5.14	5.24	5.26	5.32	5.42	5.44	5.35	5.32	5.27	5.04	4.94	4.98	5.04	5.26	5.64	5.47	5.16	5.27	5.71	5.87	5.76	5.90	5.86	5.82	5.87	5.99	6.13	6.20	6.20	5.99	5.94	6.33	6.30	5.76	5.57	5.60	5.50	5.51	5.83	5.81	5.56	5.61	5.83	5.68	5.55	5.94	6.28	6.29	5.99	5.60	5.20	5.30	5.48	5.52	5.72	5.85	5.76	5.57	5.57	
4.58	4.57	4.56	4.55	4.54	4.53	4.51	4.50	4.48	4.47	4.45	4.43	4.42	4.40	4.37	4.35	4.33	4.30	4.28	4.25	4.21	4.17	4.16	4.15	4.11	4.07	4.02	3.97	3.93	3.90	3.86	3.81	3.76	3.70	3.62	3.55	3.48	3.39	3.30	3.21	3.12	3.05	2.98	2.92	2.88	2.87	2.87	2.88	2.90	2.93	2.95	3.04	3.25	3.44	3.54	3.64	3.82	3.94	4.05	4.18	4.30	4.41	4.52	4.62	4.72	4.82	4.89	4.95	5.02	5.08	5.24	5.27	5.27	5.42	5.58	5.55	5.58	5.58	5.38	5.20	5.11	5.23	5.35	5.85	6.17	5.86	5.61	5.85	6.09	5.93	5.92	5.79	5.59	5.58	5.65	5.82	6.04	6.28	6.22	6.12	6.38	6.73	6.59	6.20	6.04	5.91	5.68	5.74	5.71	5.52	5.47	5.61	5.50	5.20	5.62	6.25	6.54	6.44	6.06	5.66	5.57	5.78	5.65	5.49	5.67	5.85	5.85	5.85	
4.57	4.57	4.56	4.55	4.54	4.53	4.51	4.50	4.48	4.47	4.45	4.43	4.41	4.39	4.37	4.35	4.33	4.30	4.28	4.25	4.21	4.18	4.15	4.14	4.12	4.08	4.03	3.99	3.95	3.91	3.87	3.82	3.77	3.71	3.64	3.57	3.51	3.43	3.34	3.26	3.19	3.13	3.07	3.03	3.00	2.98	2.98	3.00	3.03	3.06	3.11	3.17	3.30	3.45	3.58	3.69	3.83	3.97	4.08	4.21	4.35	4.45	4.54	4.63	4.69	4.79	4.88	4.92	4.95	4.96	5.03	5.14	5.18	5.41	5.75	5.86	6.13	6.20	6.01	5.94	5.84	5.77	5.66	5.75	6.10	6.27	5.97	5.70	5.70	5.63	5.75	5.89	5.75	5.62	5.61	5.69	5.78	5.96	6.08	6.03	6.02	6.26	6.46	6.37	6.32	6.37	6.30	6.27	6.01	5.66	5.62	5.60	5.40	4.82	4.73	5.33	5.97	6.44	6.52	6.47	6.35	6.27	6.05	5.54	5.46	5.85	6.07	6.07	
4.57	4.56	4.55	4.55	4.54	4.52	4.51	4.50	4.48	4.47	4.45	4.43	4.41	4.39	4.37	4.35	4.33	4.30	4.28	4.25	4.22	4.18	4.14	4.13	4.12	4.08	4.03	3.99	3.96	3.91	3.87	3.82	3.78	3.72	3.66	3.60	3.54	3.47	3.39	3.33	3.26	3.21	3.17	3.14	3.11	3.10	3.10	3.12	3.15	3.19	3.25	3.32	3.42	3.53	3.65	3.76	3.87	3.99	4.09	4.20	4.33	4.46	4.56	4.65	4.70	4.75	4.83	4.90	4.94	4.97	5.02	5.09	5.00	5.08	5.57	5.80	6.10	6.47	6.37	5.98	5.78	5.64	5.45	5.35	5.33	5.49	5.43	5.28	5.31	5.36	5.39	5.55	5.65	5.58	5.49	5.47	5.55	5.60	5.65	5.68	5.68	5.78	5.90	5.86	5.78	5.89	6.11	6.38	6.52	6.42	6.39	6.26	5.87	5.26	4.92	5.10	5.53	5.91	5.91	5.76	5.86	6.09	6.21	5.83	5.36	5.68	6.11	6.11	
4.57	4.56	4.55	4.54	4.53	4.52	4.51	4.50	4.48	4.47	4.45	4.43	4.41	4.39	4.37	4.35	4.33	4.31	4.28	4.25	4.22	4.19	4.15	4.12	4.12	4.10	4.04	4.00	3.97	3.93	3.88	3.83	3.79	3.74	3.69	3.63	3.58	3.51	3.45	3.40	3.34	3.29	3.26	3.24	3.22	3.21	3.21	3.23	3.27	3.31	3.36	3.43	3.52	3.61	3.71	3.81	3.91	4.02	4.12	4.21	4.30	4.42	4.53	4.63	4.70	4.75	4.83	4.91	4.95	4.99	5.00	5.10	5.02	4.70	4.77	4.98	5.12	5.57	5.92	5.55	5.24	5.16	5.04	4.86	4.97	5.46	5.75	5.64	5.39	5.38	5.34	5.33	5.45	5.48	5.47	5.41	5.45	5.51	5.52	5.56	5.59	5.62	5.63	5.61	5.40	5.24	5.39	5.56	5.67	5.77	5.98	6.27	6.42	6.32	6.10	5.88	5.85	6.06	5.96	5.48	5.31	5.48	5.77	5.85	5.38	5.50	5.97	5.97	
4.57	4.56	4.55	4.54	4.53	4.52	4.51	4.50	4.48	4.47	4.45	4.43	4.41	4.40	4.38	4.35	4.33	4.31	4.28	4.26	4.23	4.20	4.16	4.12	4.12	4.11	4.05	4.01	3.98	3.94	3.90	3.85	3.81	3.76	3.72	3.67	3.62	3.56	3.51	3.46	3.42	3.38	3.35	3.33	3.32	3.32	3.33	3.34	3.37	3.42	3.47	3.53	3.60	3.69	3.78	3.87	3.96	4.06	4.16	4.25	4.32	4.42	4.51	4.61	4.70	4.77	4.82	4.91	4.97	5.03	5.02	5.01	5.06	4.87	4.65	4.58	4.55	4.96	5.56	5.38	5.14	5.25	5.39	5.21	4.94	5.18	5.72	6.03	5.88	5.75	5.64	5.48	5.42	5.42	5.44	5.45	5.47	5.49	5.50	5.51	5.58	5.59	5.58	5.82	5.89	5.62	5.55	5.68	5.65	5.60	5.73	5.95	6.17	6.21	6.07	5.83	5.58	5.81	6.19	6.05	5.72	5.52	5.56	5.94	5.79	5.66	5.92	5.92	
4.57	4.56	4.55	4.54	4.53	4.52	4.51	4.50	4.48	4.47	4.45	4.43	4.42	4.40	4.38	4.36	4.34	4.31	4.29	4.26	4.24	4.21	4.18	4.13	4.11	4.12	4.07	4.02	3.99	3.97	3.92	3.88	3.84	3.79	3.76	3.71	3.67	3.62	3.57	3.53	3.49	3.46	3.43	3.42	3.41	3.42	3.43	3.44	3.47	3.51	3.56	3.62	3.69	3.76	3.84	3.92	4.01	4.09	4.18	4.28	4.36	4.45	4.54	4.61	4.67	4.76	4.83	4.93	4.98	5.05	5.08	4.88	4.75	4.79	4.90	4.88	4.66	4.90	5.70	5.77	5.32	5.32	5.47	5.53	5.20	4.76	4.97	5.48	5.74	5.83	5.77	5.67	5.58	5.54	5.47	5.43	5.50	5.56	5.57	5.53	5.67	5.73	5.62	5.86	6.17	6.21	6.12	6.26	6.49	6.63	6.73	6.71	6.54	6.25	5.85	5.51	5.41	5.44	5.60	5.72	5.70	5.38	5.10	5.52	5.80	5.70	5.76	5.76	
4.56	4.55	4.55	4.54	4.53	4.52	4.51	4.50	4.48	4.47	4.45	4.43	4.42	4.40	4.38	4.36	4.34	4.32	4.29	4.27	4.24	4.22	4.19	4.15	4.12	4.13	4.10	4.03	4.00	3.99	3.95	3.91	3.87	3.82	3.79	3.76	3.71	3.68	3.64	3.60	3.57	3.54	3.52	3.51	3.50	3.50	3.52	3.54	3.56	3.60	3.64	3.70	3.76	3.83	3.90	3.97	4.05	4.13	4.22	4.30	4.38	4.47	4.55	4.62	4.69	4.74	4.74	4.82	4.94	5.13	5.38	5.19	4.49	3.97	4.24	4.84	4.94	4.89	5.57	6.17	5.93	5.67	5.56	5.55	5.58	5.28	5.08	5.20	5.39	5.60	5.71	5.64	5.53	5.52	5.50	5.46	5.47	5.57	5.70	5.74	5.91	5.90	5.51	5.42	5.61	5.79	5.75	5.65	5.59	5.59	5.83	6.10	6.46	6.72	6.48	5.73	5.45	5.66	5.59	5.41	5.76	5.57	4.76	4.91	5.55	5.59	5.39	5.39	
4.56	4.55	4.55	4.54	4.53	4.52	4.51	4.50	4.48	4.47	4.45	4.44	4.42	4.40	4.38	4.36	4.34	4.32	4.30	4.28	4.25	4.23	4.20	4.16	4.12	4.13	4.12	4.06	4.01	4.00	3.97	3.93	3.90	3.86	3.82	3.79	3.75	3.72	3.69	3.66	3.64	3.62	3.60	3.59	3.59	3.59	3.60	3.62	3.65	3.68	3.72	3.77	3.83	3.89	3.96	4.02	4.09	4.16	4.24	4.32	4.39	4.48	4.56	4.63	4.71	4.84	4.83	4.72	4.78	5.02	5.83	6.40	5.62	4.40	4.09	4.65	4.92	4.65	4.94	5.58	5.80	5.76	5.66	5.58	5.58	5.49	5.29	5.23	5.28	5.39	5.58	5.62	5.47	5.44	5.47	5.47	5.45	5.47	5.56	5.66	5.94	6.06	5.64	5.27	5.33	5.38	5.17	5.04	4.93	4.84	4.88	4.98	5.34	5.97	6.62	6.33	5.59	5.71	5.97	5.53	5.74	6.12	5.39	5.01	5.62	5.85	5.61	5.61	
4.56	4.55	4.55	4.54	4.53	4.52	4.51	4.50	4.49	4.47	4.46	4.44	4.42	4.41	4.39	4.37	4.35	4.33	4.31	4.29	4.26	4.24	4.21	4.18	4.13	4.13	4.14	4.08	4.03	4.02	3.99	3.96	3.92	3.89	3.85	3.83	3.80	3.77	3.75	3.72	3.70	3.68	3.67	3.66	3.67	3.67	3.68	3.70	3.73	3.76	3.79	3.84	3.89	3.95	4.01	4.07	4.12	4.19	4.28	4.35	4.42	4.49	4.56	4.63	4.68	4.84	5.03	4.80	4.61	4.45	4.98	6.36	6.89	6.60	5.84	5.49	5.37	4.89	4.82	5.09	5.28	5.38	5.42	5.42	5.40	5.35	5.25	5.14	5.11	5.13	5.31	5.56	5.55	5.44	5.42	5.42	5.46	5.48	5.44	5.33	5.55	5.95	5.78	5.38	5.37	5.53	5.30	4.95	4.84	4.96	4.96	4.78	4.83	5.02	5.61	6.08	5.70	5.59	5.90	5.57	5.41	5.94	5.69	5.21	5.59	5.94	5.92	5.92	
4.56	4.55	4.55	4.54	4.53	4.52	4.51	4.50	4.49	4.47	4.46	4.44	4.43	4.41	4.39	4.38	4.36	4.34	4.32	4.29	4.27	4.25	4.22	4.19	4.15	4.13	4.16	4.12	4.06	4.04	4.02	3.99	3.96	3.93	3.89	3.87	3.85	3.82	3.80	3.79	3.76	3.75	3.74	3.73	3.73	3.74	3.75	3.77	3.80	3.83	3.86	3.90	3.94	4.00	4.06	4.12	4.17	4.22	4.30	4.38	4.44	4.52	4.57	4.60	4.62	4.65	4.95	4.94	4.58	4.05	3.79	4.43	5.43	6.22	6.25	5.98	5.72	5.28	5.07	5.11	5.18	5.22	5.24	5.25	5.26	5.21	5.16	5.14	5.09	5.04	5.06	5.25	5.36	5.32	5.30	5.30	5.32	5.40	5.51	5.49	5.54	5.82	5.69	5.45	5.44	5.62	5.84	5.40	4.82	4.94	5.19	4.97	4.81	4.93	5.20	5.60	5.59	5.61	5.86	5.54	5.32	5.70	5.55	5.16	5.39	5.80	5.95	5.95	
4.56	4.55	4.55	4.54	4.54	4.53	4.52	4.50	4.49	4.48	4.46	4.45	4.43	4.42	4.40	4.38	4.36	4.34	4.32	4.30	4.28	4.26	4.23	4.21	4.17	4.14	4.15	4.14	4.09	4.06	4.04	4.02	4.00	3.97	3.94	3.91	3.89	3.86	3.85	3.84	3.82	3.81	3.80	3.80	3.80	3.81	3.82	3.84	3.87	3.89	3.92	3.96	4.00	4.04	4.11	4.16	4.20	4.25	4.32	4.38	4.46	4.59	4.72	4.73	4.73	4.74	4.90	5.12	4.86	4.23	3.92	4.14	4.47	4.89	5.25	5.52	5.55	5.27	5.20	5.23	5.22	5.23	5.23	5.18	5.22	5.21	5.12	5.11	5.08	5.00	4.94	4.99	5.15	5.18	5.12	5.14	5.12	5.08	5.20	5.42	5.70	6.01	5.82	5.50	5.48	5.48	5.90	5.97	5.21	4.98	5.28	5.20	4.87	4.96	5.29	5.54	5.51	5.60	6.19	5.97	5.37	5.65	5.40	4.81	5.06	5.62	5.87	5.87	
4.56	4.56	4.55	4.55	4.54	4.53	4.52	4.51	4.49	4.48	4.47	4.45	4.44	4.42	4.41	4.39	4.37	4.35	4.33	4.31	4.29	4.27	4.25	4.22	4.19	4.16	4.15	4.16	4.12	4.08	4.06	4.04	4.02	4.01	3.97	3.94	3.93	3.91	3.89	3.89	3.88	3.87	3.86	3.86	3.87	3.88	3.88	3.90	3.93	3.96	3.98	4.02	4.06	4.09	4.14	4.20	4.24	4.29	4.35	4.40	4.45	4.53	4.71	4.89	4.94	4.89	4.91	5.25	5.49	5.10	4.59	4.58	4.65	4.66	4.80	5.11	5.39	5.30	5.22	5.26	5.25	5.28	5.32	5.23	5.17	5.13	5.05	5.01	4.96	4.97	5.01	4.99	5.05	5.13	5.08	5.08	5.04	4.88	4.82	4.95	5.39	5.95	6.08	5.69	5.46	5.46	5.71	5.94	5.45	5.13	5.35	5.35	4.96	4.84	5.15	5.53	5.53	5.31	5.95	6.33	5.64	5.85	5.78	4.78	4.84	5.48	5.72	5.72	
4.57	4.56	4.55	4.55	4.54	4.53	4.52	4.51	4.50	4.49	4.47	4.46	4.44	4.43	4.41	4.40	4.38	4.36	4.34	4.32	4.30	4.28	4.26	4.24	4.21	4.18	4.16	4.17	4.15	4.12	4.09	4.07	4.05	4.04	4.01	3.98	3.97	3.96	3.94	3.93	3.93	3.93	3.92	3.92	3.93	3.94	3.94	3.96	3.98	4.02	4.05	4.07	4.11	4.14	4.18	4.24	4.28	4.33	4.39	4.38	4.38	4.46	4.57	4.81	5.17	5.23	5.12	5.35	5.74	5.85	5.45	4.98	4.85	4.87	4.80	4.85	5.03	5.19	5.31	5.34	5.35	5.43	5.46	5.35	5.27	5.19	5.11	5.15	5.04	4.93	5.06	5.17	5.10	5.05	5.02	5.09	5.19	5.02	4.78	4.67	4.84	5.30	5.80	5.90	5.50	5.48	5.81	5.94	5.59	5.43	5.64	5.70	5.41	5.02	5.02	5.37	5.46	5.12	5.42	6.18	5.85	5.90	6.37	5.47	4.90	5.41	5.71	5.71	
4.57	4.56	4.56	4.55	4.54	4.53	4.52	4.51	4.50	4.49	4.48	4.46	4.45	4.43	4.42	4.40	4.39	4.37	4.35	4.33	4.32	4.30	4.28	4.25	4.23	4.21	4.18	4.17	4.16	4.15	4.11	4.09	4.09	4.07	4.04	4.02	4.01	4.00	3.99	3.98	3.98	3.97	3.98	3.97	3.98	4.00	4.00	4.01	4.03	4.07	4.10	4.12	4.15	4.19	4.22	4.26	4.30	4.33	4.47	4.51	4.38	4.43	4.57	4.64	5.03	5.30	4.97	4.77	4.90	5.28	5.66	5.60	5.37	5.37	5.29	5.16	5.07	5.06	5.36	5.48	5.40	5.50	5.69	5.70	5.74	5.85	5.80	5.92	5.92	5.48	5.30	5.51	5.58	5.40	5.15	5.12	5.37	5.31	5.00	4.76	4.74	4.90	5.26	5.80	5.67	5.47	5.85	6.06	5.72	5.69	5.85	5.74	5.58	5.21	5.01	5.23	5.43	5.16	5.18	5.83	5.74	5.52	6.18	6.01	5.25	5.38	5.69	5.69	
4.57	4.56	4.56	4.55	4.55	4.54	4.53	4.52	4.51	4.50	4.48	4.47	4.46	4.44	4.43	4.41	4.40	4.38	4.36	4.35	4.33	4.31	4.29	4.27	4.25	4.23	4.21	4.18	4.17	4.18	4.15	4.11	4.11	4.11	4.08	4.06	4.05	4.05	4.03	4.02	4.02	4.02	4.02	4.02	4.03	4.05	4.06	4.06	4.08	4.11	4.14	4.17	4.20	4.22	4.26	4.29	4.33	4.32	4.43	4.65	4.53	4.39	4.44	4.41	4.53	4.81	4.68	4.47	4.43	4.46	4.85	5.40	5.46	5.47	5.58	5.54	5.41	5.12	5.13	5.31	5.24	5.21	5.43	5.60	5.71	5.97	6.05	6.11	6.35	6.23	5.76	5.61	5.84	6.01	5.77	5.37	5.41	5.53	5.38	5.12	5.00	4.97	5.03	5.45	5.64	5.51	5.70	5.93	5.59	5.57	5.91	5.82	5.55	5.26	5.17	5.31	5.52	5.35	5.15	5.56	5.73	5.46	5.67	5.70	5.29	5.41	5.68	5.68	
4.57	4.56	4.56	4.56	4.55	4.54	4.53	4.52	4.51	4.50	4.49	4.48	4.46	4.45	4.43	4.42	4.40	4.39	4.37	4.36	4.34	4.32	4.31	4.29	4.27	4.25	4.23	4.21	4.18	4.19	4.19	4.15	4.14	4.13	4.12	4.10	4.08	4.08	4.07	4.06	4.06	4.06	4.06	4.07	4.07	4.08	4.10	4.11	4.12	4.15	4.18	4.21	4.23	4.26	4.29	4.32	4.36	4.34	4.32	4.49	4.50	4.31	4.14	4.18	4.51	4.80	4.86	4.83	4.90	4.76	4.58	4.95	5.23	5.21	5.24	5.25	5.26	5.16	5.09	5.19	5.19	5.10	5.07	4.98	4.98	5.09	5.15	5.19	5.44	5.87	5.88	5.53	5.53	5.75	5.86	5.70	5.51	5.54	5.49	5.34	5.20	5.09	5.02	5.13	5.33	5.36	5.53	5.68	5.36	5.19	5.49	5.80	5.77	5.41	5.22	5.34	5.53	5.49	5.24	5.29	5.59	5.66	5.67	5.49	5.01	5.20	5.59	5.59	
4.57	4.57	4.56	4.56	4.55	4.55	4.54	4.53	4.52	4.51	4.49	4.48	4.47	4.46	4.44	4.43	4.41	4.40	4.38	4.37	4.35	4.34	4.32	4.30	4.29	4.27	4.25	4.23	4.20	4.19	4.20	4.18	4.17	4.17	4.14	4.13	4.12	4.11	4.11	4.10	4.10	4.10	4.10	4.11	4.11	4.12	4.14	4.16	4.17	4.19	4.22	4.25	4.27	4.30	4.33	4.36	4.37	4.38	4.37	4.45	4.55	4.47	4.23	4.17	4.46	4.74	4.84	4.84	5.06	5.16	4.89	4.94	5.26	5.44	5.46	5.39	5.25	5.23	5.27	5.28	5.14	5.18	5.21	4.89	4.69	4.71	4.73	4.81	4.93	5.26	5.67	5.54	5.46	5.46	5.42	5.53	5.47	5.50	5.39	5.25	5.25	5.15	5.10	5.11	5.17	5.19	5.31	5.43	5.31	5.19	5.21	5.35	5.53	5.40	5.19	5.25	5.41	5.47	5.40	5.26	5.40	5.71	5.97	6.02	5.39	5.09	5.30	5.30	
4.58	4.57	4.57	4.56	4.56	4.55	4.54	4.53	4.52	4.51	4.50	4.49	4.48	4.46	4.45	4.44	4.42	4.41	4.40	4.38	4.37	4.35	4.34	4.32	4.30	4.29	4.27	4.25	4.23	4.21	4.21	4.20	4.19	4.21	4.19	4.17	4.15	4.14	4.14	4.14	4.14	4.15	4.15	4.15	4.16	4.17	4.18	4.20	4.21	4.24	4.26	4.29	4.31	4.33	4.36	4.38	4.39	4.41	4.45	4.51	4.68	4.78	4.68	4.58	4.54	4.55	4.63	4.64	4.79	4.91	4.69	4.63	4.98	5.32	5.57	5.76	5.65	5.41	5.39	5.50	5.25	5.12	5.12	4.82	4.61	4.57	4.63	4.69	4.68	4.75	5.08	5.19	5.34	5.56	5.45	5.33	5.20	5.36	5.41	5.17	5.14	5.15	5.13	5.15	5.21	5.24	5.29	5.31	5.23	5.17	5.17	5.16	5.23	5.26	5.16	5.15	5.27	5.36	5.45	5.41	5.42	5.55	5.70	6.11	6.03	5.53	5.38	5.38	
4.58	4.57	4.57	4.57	4.56	4.56	4.55	4.54	4.53	4.52	4.51	4.50	4.48	4.47	4.46	4.45	4.43	4.42	4.41	4.39	4.38	4.37	4.35	4.34	4.32	4.31	4.29	4.28	4.26	4.24	4.23	4.21	4.19	4.20	4.21	4.21	4.20	4.18	4.18	4.17	4.17	4.18	4.19	4.19	4.19	4.21	4.22	4.23	4.25	4.27	4.29	4.32	4.35	4.37	4.39	4.43	4.44	4.43	4.44	4.43	4.46	4.53	4.50	4.59	4.68	4.51	4.44	4.57	4.84	4.98	4.72	4.49	4.69	4.89	4.95	5.26	5.46	5.34	5.04	5.09	5.13	5.01	4.93	4.53	4.31	4.27	4.24	4.36	4.45	4.42	4.61	4.83	5.01	5.28	5.48	5.45	5.09	4.98	5.15	5.08	4.99	5.05	5.09	5.13	5.20	5.27	5.30	5.26	5.19	5.07	4.94	4.86	4.84	4.94	5.11	5.13	5.07	5.08	5.22	5.36	5.38	5.39	5.27	5.54	5.88	5.81	5.76	5.76	
4.58	4.58	4.58	4.57	4.57	4.56	4.55	4.54	4.53	4.52	4.51	4.50	4.49	4.48	4.47	4.46	4.44	4.43	4.42	4.41	4.39	4.38	4.37	4.35	4.34	4.33	4.31	4.30	4.28	4.27	4.26	4.24	4.23	4.21	4.21	4.22	4.23	4.22	4.22	4.21	4.20	4.21	4.22	4.22	4.23	4.24	4.25	4.26	4.28	4.30	4.33	4.35	4.38	4.41	4.44	4.49	4.47	4.41	4.38	4.33	4.28	4.27	4.15	4.26	4.62	4.63	4.36	4.43	4.92	5.22	5.11	4.78	4.71	4.81	4.69	4.61	4.93	5.35	4.91	4.56	4.72	4.92	5.19	4.77	4.30	4.33	4.22	4.29	4.64	4.66	4.63	4.75	4.85	4.98	5.21	5.50	5.38	5.11	5.20	5.17	5.02	4.97	4.97	5.09	5.27	5.49	5.67	5.65	5.61	5.65	5.42	5.16	4.93	4.69	4.99	5.36	5.24	4.99	4.90	5.00	5.17	5.36	5.20	5.16	5.37	5.62	5.86	5.86	
4.59	4.58	4.58	4.58	4.57	4.57	4.56	4.55	4.54	4.53	4.52	4.51	4.50	4.49	4.48	4.47	4.45	4.44	4.43	4.42	4.41	4.39	4.38	4.37	4.36	4.34	4.33	4.32	4.31	4.30	4.28	4.27	4.26	4.25	4.24	4.23	4.24	4.24	4.25	4.25	4.24	4.24	4.25	4.26	4.26	4.28	4.29	4.30	4.31	4.33	4.36	4.39	4.42	4.45	4.48	4.61	4.61	4.41	4.37	4.35	4.35	4.47	4.35	4.20	4.46	4.84	4.66	4.35	4.53	4.77	4.92	4.93	4.88	5.02	5.20	4.99	5.32	6.17	5.72	5.10	4.88	4.99	5.75	5.88	5.29	5.27	5.21	4.84	4.88	4.98	4.92	4.92	4.97	5.00	5.15	5.56	5.67	5.40	5.37	5.30	5.17	5.07	4.90	4.93	5.08	5.25	5.60	6.03	6.18	6.32	6.40	6.20	5.89	5.23	5.05	5.64	5.95	5.72	5.22	4.81	4.86	5.26	5.30	5.21	5.25	5.50	5.81	5.81	
4.59	4.59	4.58	4.58	4.58	4.57	4.56	4.56	4.55	4.54	4.53	4.52	4.51	4.50	4.49	4.48	4.46	4.45	4.44	4.43	4.42	4.41	4.40	4.38	4.37	4.36	4.35	4.34	4.33	4.32	4.31	4.30	4.29	4.28	4.27	4.27	4.26	4.26	4.27	4.28	4.29	4.28	4.28	4.29	4.29	4.30	4.31	4.33	4.35	4.36	4.37	4.41	4.45	4.48	4.48	4.68	5.00	4.76	4.50	4.47	4.37	4.60	4.65	4.17	3.99	4.40	4.65	4.57	4.60	4.62	4.67	4.78	4.93	5.26	5.76	5.76	5.98	6.94	6.84	6.05	5.77	5.51	5.80	6.33	6.31	5.99	5.83	5.45	4.88	4.72	4.81	4.86	5.07	5.15	5.09	5.34	5.52	5.28	5.07	5.04	5.14	5.26	5.08	4.84	4.77	4.68	4.54	5.03	5.68	5.87	6.07	6.19	6.22	5.84	5.19	5.21	5.76	6.06	5.87	5.33	5.02	5.21	5.32	5.28	5.30	5.55	5.85	5.85	
4.60	4.59	4.59	4.59	4.58	4.58	4.57	4.56	4.55	4.54	4.54	4.53	4.52	4.51	4.50	4.48	4.47	4.46	4.45	4.44	4.43	4.42	4.41	4.40	4.39	4.38	4.37	4.36	4.35	4.34	4.33	4.32	4.32	4.31	4.30	4.30	4.29	4.29	4.28	4.29	4.31	4.32	4.31	4.31	4.32	4.34	4.34	4.34	4.37	4.40	4.40	4.43	4.48	4.51	4.49	4.56	5.08	5.26	4.86	4.66	4.29	4.38	4.77	4.44	4.04	4.13	4.51	4.79	4.88	4.90	4.84	4.64	4.27	4.28	4.74	4.88	4.95	6.17	6.96	6.43	6.14	5.88	5.40	5.30	5.85	6.09	5.97	6.10	5.58	4.94	5.03	4.97	4.93	5.08	4.99	5.05	5.32	5.51	5.20	4.82	4.84	5.00	5.17	5.19	5.18	5.28	4.89	4.42	4.74	5.21	5.47	5.65	5.72	5.63	5.22	4.93	5.20	5.64	5.78	5.47	5.23	5.33	5.26	5.15	5.16	5.42	5.75	5.75	
4.60	4.59	4.59	4.59	4.59	4.58	4.57	4.57	4.56	4.55	4.54	4.53	4.52	4.51	4.50	4.49	4.48	4.47	4.46	4.45	4.44	4.43	4.42	4.41	4.40	4.39	4.39	4.38	4.37	4.36	4.35	4.34	4.34	4.33	4.33	4.32	4.32	4.32	4.31	4.31	4.32	4.34	4.35	4.34	4.35	4.37	4.38	4.36	4.38	4.41	4.42	4.44	4.49	4.52	4.53	4.51	4.80	5.25	5.25	5.11	4.83	4.80	5.10	5.00	4.55	4.17	4.34	4.71	4.76	4.87	5.04	5.02	4.49	3.92	3.90	4.18	4.28	4.93	6.07	6.13	6.06	6.36	6.30	5.26	4.83	5.40	5.57	5.89	6.09	5.51	5.21	5.19	4.98	5.18	5.35	5.17	5.12	5.55	5.59	5.04	4.86	4.93	5.11	5.27	5.23	5.26	5.19	4.61	4.35	4.70	5.14	5.49	5.51	5.43	5.34	5.21	5.32	5.59	5.78	5.42	4.96	5.25	5.39	5.21	5.20	5.32	5.47	5.47	
4.61	4.60	4.60	4.60	4.59	4.59	4.58	4.57	4.57	4.56	4.55	4.54	4.53	4.52	4.51	4.50	4.49	4.48	4.47	4.47	4.46	4.45	4.44	4.43	4.42	4.41	4.40	4.39	4.39	4.38	4.37	4.37	4.36	4.36	4.35	4.35	4.35	4.34	4.34	4.34	4.34	4.34	4.36	4.38	4.37	4.39	4.40	4.41	4.41	4.43	4.43	4.45	4.48	4.52	4.54	4.69	4.90	5.07	5.25	5.42	5.50	5.38	5.42	5.42	5.00	4.29	4.11	4.53	4.77	4.87	5.11	5.42	5.58	5.15	4.38	4.21	4.39	4.99	5.75	5.96	5.88	6.14	6.88	6.61	5.46	4.86	4.64	4.75	5.18	5.06	4.73	4.77	4.65	4.90	5.56	5.70	5.38	5.46	5.51	5.12	4.89	4.89	4.87	4.80	4.77	4.73	4.86	4.81	4.50	4.44	4.68	5.27	5.55	5.27	5.03	5.21	5.50	5.58	5.89	5.84	5.03	4.98	5.38	5.40	5.48	5.62	5.66	5.66	
4.61	4.61	4.60	4.60	4.60	4.59	4.59	4.58	4.57	4.56	4.56	4.55	4.54	4.53	4.52	4.51	4.50	4.49	4.48	4.48	4.47	4.46	4.45	4.44	4.43	4.42	4.42	4.41	4.40	4.40	4.39	4.38	4.38	4.38	4.37	4.37	4.37	4.37	4.37	4.37	4.37	4.37	4.38	4.40	4.40	4.42	4.42	4.42	4.42	4.44	4.44	4.46	4.45	4.48	4.45	4.69	5.14	5.20	4.96	4.93	5.16	5.17	5.13	5.40	5.40	4.87	4.56	4.61	4.77	4.83	4.97	5.28	5.67	6.06	5.75	5.19	5.06	5.27	5.68	5.84	5.43	5.16	5.98	6.64	6.41	5.86	5.23	5.12	5.31	5.28	5.10	4.84	4.47	4.28	4.86	5.56	5.76	6.00	5.82	5.10	4.54	4.35	4.53	4.96	5.18	4.92	4.97	5.14	5.02	4.68	4.25	4.47	5.23	5.38	4.82	4.95	5.44	5.44	5.76	6.10	5.43	4.96	5.19	5.38	5.44	5.61	5.79	5.79	
4.62	4.61	4.61	4.61	4.60	4.60	4.59	4.59	4.58	4.57	4.56	4.55	4.55	4.54	4.53	4.52	4.51	4.50	4.49	4.49	4.48	4.47	4.46	4.45	4.45	4.44	4.43	4.43	4.42	4.41	4.41	4.40	4.40	4.40	4.39	4.39	4.39	4.39	4.39	4.39	4.39	4.39	4.39	4.40	4.41	4.43	4.44	4.44	4.43	4.44	4.44	4.44	4.42	4.39	4.35	4.50	5.04	5.41	4.97	4.57	4.76	4.97	4.86	4.98	5.17	4.88	4.86	4.88	4.86	4.79	4.61	4.63	4.71	5.21	5.77	5.81	5.60	5.15	4.96	5.26	5.28	4.91	5.34	6.19	6.41	6.59	6.72	6.80	6.83	6.94	6.76	5.89	5.14	4.63	4.57	5.12	5.75	6.42	6.77	6.30	5.49	4.85	4.51	4.93	5.53	5.18	4.84	4.88	5.14	5.25	4.54	3.92	4.30	5.02	4.74	4.68	5.16	5.14	5.57	6.22	5.91	5.31	5.18	5.34	5.37	5.47	5.66	5.66	
4.62	4.62	4.62	4.61	4.61	4.60	4.60	4.59	4.58	4.58	4.57	4.56	4.55	4.54	4.54	4.53	4.52	4.51	4.50	4.50	4.49	4.48	4.47	4.46	4.46	4.45	4.44	4.44	4.43	4.43	4.42	4.42	4.41	4.41	4.41	4.41	4.41	4.41	4.41	4.41	4.41	4.42	4.42	4.42	4.43	4.44	4.46	4.46	4.46	4.45	4.44	4.43	4.40	4.29	4.19	4.25	4.66	5.45	5.51	4.81	4.65	5.00	5.13	5.04	4.83	4.33	4.33	4.89	5.12	4.97	4.63	4.35	4.17	3.86	3.69	4.10	4.92	5.02	4.66	4.84	5.17	4.84	4.76	5.73	6.39	6.41	6.50	6.82	6.79	6.92	7.56	7.39	6.48	5.85	5.41	5.24	5.61	6.22	6.76	6.96	6.73	6.00	5.16	5.01	5.54	5.42	4.74	4.47	4.72	5.38	5.42	4.59	4.00	4.29	4.30	4.39	4.92	4.68	4.78	5.63	5.87	5.45	5.14	5.19	5.27	5.40	5.53	5.53	
4.63	4.62	4.62	4.62	4.61	4.61	4.60	4.60	4.59	4.58	4.57	4.57	4.56	4.55	4.54	4.53	4.53	4.52	4.51	4.50	4.50	4.49	4.48	4.47	4.47	4.46	4.46	4.45	4.44	4.44	4.44	4.43	4.43	4.43	4.43	4.42	4.42	4.43	4.43	4.43	4.43	4.44	4.44	4.45	4.45	4.45	4.46	4.47	4.47	4.47	4.46	4.43	4.38	4.24	3.94	3.74	3.90	4.74	5.76	5.43	4.70	4.81	5.39	5.90	5.58	4.52	3.88	4.29	4.83	4.85	4.68	4.31	4.05	3.73	3.26	3.24	4.07	4.73	4.43	4.68	5.01	4.55	3.85	4.07	5.22	5.22	4.93	5.38	5.39	5.15	6.08	7.12	6.95	6.47	6.03	5.25	4.95	5.68	6.26	6.39	6.65	6.41	5.83	5.69	5.97	6.03	5.32	4.81	4.68	4.92	5.38	5.27	4.74	4.47	4.24	4.13	4.68	4.67	4.35	4.69	4.99	4.94	5.00	5.17	5.23	5.34	5.42	5.42	
4.64	4.63	4.63	4.62	4.62	4.61	4.61	4.60	4.59	4.58	4.58	4.57	4.56	4.55	4.55	4.54	4.53	4.52	4.52	4.51	4.50	4.50	4.49	4.48	4.48	4.47	4.47	4.46	4.46	4.45	4.45	4.44	4.44	4.44	4.44	4.44	4.44	4.44	4.44	4.44	4.45	4.45	4.45	4.46	4.47	4.47	4.47	4.48	4.48	4.48	4.47	4.45	4.39	4.28	4.04	3.76	3.52	3.79	5.09	5.83	5.36	4.75	4.84	5.86	6.42	5.48	4.43	4.28	4.77	4.91	4.73	4.61	4.48	4.57	4.38	3.95	4.12	4.54	4.28	4.67	5.31	4.94	3.92	3.48	4.39	4.48	4.27	4.75	4.92	4.61	4.76	5.61	5.84	5.78	5.81	5.30	4.62	4.91	5.71	5.93	6.19	6.31	5.96	5.79	6.08	6.33	5.97	5.51	5.29	5.18	5.26	5.35	5.14	4.82	4.42	4.00	4.23	4.62	4.55	4.68	4.69	4.44	4.74	5.23	5.48	5.61	5.64	5.64	
4.64	4.64	4.63	4.63	4.62	4.61	4.61	4.60	4.59	4.59	4.58	4.57	4.56	4.56	4.55	4.54	4.54	4.53	4.52	4.51	4.51	4.50	4.49	4.49	4.48	4.48	4.47	4.47	4.46	4.46	4.46	4.45	4.45	4.45	4.45	4.45	4.45	4.45	4.45	4.45	4.46	4.46	4.47	4.47	4.48	4.49	4.49	4.50	4.50	4.50	4.48	4.46	4.41	4.35	4.25	4.11	3.77	3.50	3.99	4.91	5.26	4.86	4.19	4.59	5.98	5.83	4.88	4.58	5.08	5.45	5.27	5.17	5.05	5.23	5.37	5.17	4.90	4.58	4.39	4.68	5.39	5.43	4.30	3.65	4.36	4.62	4.44	4.59	4.84	4.73	4.73	5.18	5.11	5.12	5.48	5.36	4.75	4.64	5.12	5.37	5.59	5.98	6.01	5.85	6.15	6.42	6.45	6.49	6.31	5.97	5.72	5.63	5.42	5.20	4.97	4.59	4.36	4.39	4.54	5.09	5.15	4.56	4.65	5.08	5.35	5.63	5.80	5.80	
4.65	4.65	4.64	4.63	4.62	4.62	4.61	4.60	4.60	4.59	4.58	4.57	4.57	4.56	4.55	4.55	4.54	4.53	4.52	4.52	4.51	4.50	4.50	4.49	4.49	4.48	4.48	4.47	4.47	4.46	4.46	4.46	4.46	4.46	4.45	4.45	4.46	4.46	4.46	4.46	4.47	4.47	4.48	4.48	4.49	4.49	4.50	4.51	4.51	4.51	4.50	4.48	4.46	4.42	4.35	4.25	4.04	3.71	3.66	3.94	4.26	4.48	4.09	3.93	5.11	5.67	4.95	4.55	4.94	5.39	5.43	5.34	4.89	4.83	5.19	5.48	5.47	4.66	4.40	4.83	5.35	5.53	4.63	4.10	4.43	4.54	4.35	4.35	4.50	4.51	4.76	5.31	5.14	4.80	5.06	5.27	5.04	4.92	5.18	5.01	4.60	4.96	5.57	5.81	6.08	6.40	6.48	6.67	6.93	6.81	6.61	6.71	6.60	6.19	5.92	5.71	5.47	4.92	4.37	4.83	5.27	4.78	4.67	4.96	5.11	5.44	5.73	5.73	
4.66	4.66	4.65	4.64	4.63	4.62	4.61	4.60	4.60	4.59	4.58	4.57	4.57	4.56	4.55	4.55	4.54	4.53	4.53	4.52	4.51	4.51	4.50	4.49	4.49	4.48	4.48	4.47	4.47	4.47	4.46	4.46	4.46	4.46	4.46	4.46	4.46	4.46	4.46	4.47	4.47	4.47	4.48	4.49	4.49	4.50	4.51	4.51	4.52	4.52	4.52	4.51	4.50	4.46	4.42	4.36	4.25	4.11	4.02	4.04	4.08	4.17	4.09	3.80	4.26	5.01	4.78	4.24	4.32	4.56	4.60	4.88	4.57	4.21	4.35	4.82	5.35	4.91	4.27	4.46	5.16	5.54	5.26	4.81	4.89	4.86	4.59	4.64	4.63	4.48	4.58	5.11	5.27	4.98	4.93	5.13	5.19	5.11	5.43	5.50	4.89	4.65	4.96	5.21	5.22	5.31	5.37	5.42	5.88	6.31	6.32	6.51	6.81	6.86	6.76	6.67	6.77	6.56	5.80	5.66	6.02	5.76	5.25	5.14	5.13	5.30	5.53	5.53	
4.67	4.66	4.65	4.64	4.63	4.62	4.61	4.61	4.60	4.59	4.58	4.58	4.57	4.56	4.56	4.55	4.54	4.54	4.53	4.52	4.52	4.51	4.51	4.50	4.49	4.49	4.48	4.48	4.48	4.47	4.47	4.47	4.47	4.47	4.47	4.47	4.47	4.47	4.47	4.47	4.48	4.48	4.49	4.49	4.50	4.51	4.52	4.52	4.53	4.53	4.53	4.53	4.52	4.49	4.45	4.40	4.35	4.29	4.24	4.29	4.31	4.19	4.07	3.76	3.82	4.40	4.47	3.92	3.92	4.14	4.03	4.45	4.42	3.97	3.95	4.38	5.06	5.01	4.18	3.97	4.76	5.44	5.48	4.98	5.10	5.35	5.12	5.07	4.96	4.67	4.51	4.87	5.31	5.35	5.18	5.07	5.11	5.11	5.51	6.05	5.91	5.27	4.84	4.82	4.67	4.59	4.74	4.77	4.91	5.31	5.39	5.50	6.06	6.74	7.11	7.13	7.38	7.72	7.49	7.04	6.96	6.67	5.90	5.36	5.15	5.21	5.38	5.38	
