ncols	128
nrows	92
xllcorner	280654.681342
yllcorner	3772085.885776
cellsize	500.000000
NODATA_value	-32768.000000
7.77	6.93	6.93	7.55	7.31	7.00	6.09	6.25	7.66	7.70	7.49	7.78	7.49	7.39	6.86	6.43	6.68	6.28	6.65	7.77	8.17	8.04	7.88	8.06	7.90	7.52	7.82	8.01	7.50	7.25	7.43	7.49	7.49	7.56	7.64	7.70	7.82	8.20	9.00	8.73	8.91	9.31	8.44	7.88	8.38	8.83	8.59	7.88	6.71	7.79	8.69	8.62	8.60	8.91	8.50	7.79	7.52	7.04	6.91	6.73	6.53	7.86	8.63	8.56	8.98	8.88	8.78	8.44	7.47	6.83	6.64	7.04	7.35	7.28	6.95	6.98	6.89	6.43	6.57	6.70	6.62	4.96	5.96	8.88	8.67	7.43	7.44	7.75	8.03	7.50	7.68	8.19	7.88	8.35	8.63	8.01	7.83	7.40	6.79	6.28	6.30	5.97	6.09	8.15	8.14	6.78	6.84	6.68	6.79	6.82	6.80	6.67	6.35	6.89	7.02	6.77	6.86	7.07	7.47	7.55	7.43	7.46	7.62	7.56	7.34	7.48	7.60	7.60	
7.77	6.93	6.93	7.55	7.31	7.00	6.09	6.25	7.66	7.70	7.49	7.78	7.49	7.39	6.86	6.43	6.68	6.28	6.65	7.77	8.17	8.04	7.88	8.06	7.90	7.52	7.82	8.01	7.50	7.25	7.43	7.49	7.49	7.56	7.64	7.70	7.82	8.20	9.00	8.73	8.91	9.31	8.44	7.88	8.38	8.83	8.59	7.88	6.71	7.79	8.69	8.62	8.60	8.91	8.50	7.79	7.52	7.04	6.91	6.73	6.53	7.86	8.63	8.56	8.98	8.88	8.78	8.44	7.47	6.83	6.64	7.04	7.35	7.28	6.95	6.98	6.89	6.43	6.57	6.70	6.62	4.96	5.96	8.88	8.67	7.43	7.44	7.75	8.03	7.50	7.68	8.19	7.88	8.35	8.63	8.01	7.83	7.40	6.79	6.28	6.30	5.97	6.09	8.15	8.14	6.78	6.84	6.68	6.79	6.82	6.80	6.67	6.35	6.89	7.02	6.77	6.86	7.07	7.47	7.55	7.43	7.46	7.62	7.56	7.34	7.48	7.60	7.60	
8.32	6.92	6.34	7.16	7.48	7.30	5.92	5.64	7.18	7.39	7.19	7.81	7.63	7.50	7.24	6.82	6.85	6.22	6.08	7.04	7.64	7.57	7.38	7.68	7.80	7.23	7.32	7.84	7.54	7.24	7.22	7.35	7.29	7.23	7.25	7.07	6.63	6.77	8.09	7.79	7.77	8.70	8.12	6.79	7.39	8.52	8.19	7.79	6.52	6.88	7.52	7.04	7.55	8.64	8.29	8.01	8.28	7.34	6.85	6.66	5.90	6.70	7.76	7.58	8.04	8.42	8.76	8.79	7.92	7.13	6.72	7.17	7.62	7.55	7.11	7.05	6.83	6.28	6.44	6.61	6.29	4.49	4.79	8.08	8.75	7.34	7.11	7.51	8.10	7.86	7.84	8.21	7.22	7.14	8.34	8.34	8.34	7.83	6.92	6.21	6.08	5.62	5.26	7.80	8.69	7.36	7.29	7.05	6.95	6.84	6.68	6.55	6.27	6.71	6.92	6.67	6.64	6.80	7.28	7.38	7.15	7.21	7.45	7.43	7.25	7.46	7.67	7.67	
9.34	7.57	6.04	6.36	7.33	7.73	6.31	5.54	6.77	7.10	6.96	7.77	7.86	7.54	7.51	7.41	7.15	6.26	5.89	6.70	7.31	7.18	6.94	7.27	7.75	7.31	7.00	7.43	7.46	7.36	7.11	7.23	7.25	7.04	6.91	6.49	6.13	6.44	7.20	6.73	6.74	8.10	7.91	6.23	7.05	8.90	7.80	7.20	6.30	5.93	6.83	6.50	7.60	8.75	7.20	7.39	9.26	8.21	6.54	6.59	5.62	5.49	6.91	6.92	7.06	7.97	8.91	9.05	8.31	7.69	7.25	7.41	7.90	7.96	7.57	7.38	6.94	6.24	6.36	6.69	5.90	3.91	3.77	7.43	8.70	7.32	6.84	6.95	7.48	7.94	8.27	8.76	7.19	6.27	7.87	8.39	9.04	8.46	7.51	6.86	6.08	5.02	4.49	7.24	8.59	8.35	8.51	8.46	7.79	6.85	6.50	6.35	6.24	6.59	6.65	6.32	6.30	6.58	7.17	7.30	7.01	7.10	7.40	7.27	7.11	7.41	7.63	7.63	
9.33	8.63	7.11	6.15	6.72	7.47	6.72	6.09	6.65	6.98	7.16	7.43	7.59	7.44	7.20	7.36	7.23	6.43	6.20	6.81	7.29	7.12	6.96	7.27	7.64	7.45	7.03	7.04	7.17	7.34	7.16	7.09	7.20	7.06	6.89	6.55	6.43	6.50	6.70	6.65	6.84	7.77	7.68	6.16	6.77	9.15	8.02	6.84	6.57	6.26	6.74	6.45	8.34	8.89	6.11	5.65	8.84	9.17	6.49	6.25	5.82	5.66	6.79	7.04	7.26	7.91	8.69	8.96	8.37	8.19	8.13	7.68	7.92	8.17	7.84	7.51	6.77	5.94	6.10	6.56	5.43	3.84	4.00	6.51	7.91	7.24	7.17	6.57	6.40	7.33	8.55	9.11	7.86	7.42	7.80	8.05	9.24	8.66	7.73	7.41	6.63	4.90	4.29	6.64	7.42	7.93	8.65	9.71	9.30	6.87	6.52	6.41	6.22	6.88	6.65	5.77	5.96	6.72	7.32	7.29	6.85	6.99	7.51	7.39	7.15	7.35	7.46	7.46	
8.27	8.65	8.25	6.82	6.59	7.04	6.40	6.15	6.48	6.83	7.47	7.36	7.19	7.35	7.14	7.18	7.17	6.55	6.42	6.88	7.23	7.16	7.10	7.40	7.59	7.37	7.05	7.00	7.09	7.19	7.14	7.01	7.05	6.97	6.86	6.67	6.56	6.36	6.40	6.81	6.82	7.46	7.58	6.19	6.68	8.46	7.85	7.02	7.18	7.15	6.35	6.69	8.73	8.68	6.94	5.06	6.48	9.37	7.79	5.91	5.41	6.01	6.53	6.72	8.00	8.04	8.02	8.60	8.37	8.82	8.97	8.00	8.15	8.52	8.14	7.51	6.13	5.60	5.92	6.19	5.61	4.54	4.50	5.54	6.29	6.62	7.41	6.38	5.51	6.25	8.33	8.96	7.53	7.66	7.86	8.40	9.16	8.48	7.86	7.83	7.55	5.89	4.38	5.83	7.05	7.20	7.68	9.79	10.31	7.45	6.64	6.44	5.91	6.90	7.16	5.68	5.61	6.74	7.82	7.79	6.49	6.51	7.33	7.42	7.32	7.41	7.48	7.48	
7.70	8.19	8.52	7.74	7.23	7.09	6.25	5.98	6.22	6.69	7.38	7.58	7.42	7.20	7.15	7.14	6.95	6.65	6.69	6.98	7.15	7.22	7.26	7.45	7.57	7.36	7.11	7.09	7.17	7.21	7.13	7.07	7.07	6.96	6.86	6.75	6.74	6.52	6.37	6.69	6.53	6.97	7.48	6.84	7.33	7.63	7.02	6.81	7.25	7.40	6.47	7.52	8.38	7.96	8.12	6.15	5.09	8.00	9.03	6.48	4.95	5.92	5.99	6.04	8.24	7.87	7.49	7.87	7.73	9.14	9.42	8.13	8.21	8.66	8.81	8.36	6.33	5.74	6.08	6.16	5.99	5.62	5.41	4.89	4.62	5.85	7.24	6.42	5.23	5.58	8.58	9.09	6.89	6.83	7.56	8.73	9.19	8.13	7.25	7.41	7.69	7.15	5.30	5.12	7.08	7.41	7.20	9.30	10.53	9.08	7.45	6.55	5.66	6.04	7.00	6.21	5.61	6.45	8.04	8.85	7.10	6.32	7.09	7.15	7.25	7.40	7.44	7.44	
7.50	7.93	8.22	8.04	8.25	7.83	6.61	6.09	6.20	6.64	7.00	7.43	7.73	7.33	7.29	7.29	6.86	6.74	6.89	7.06	7.06	7.15	7.33	7.47	7.47	7.28	7.14	7.14	7.20	7.21	7.14	7.10	7.07	6.95	6.87	6.83	6.75	6.68	6.73	6.59	6.37	6.51	6.93	7.21	7.48	7.33	6.72	6.75	7.05	6.91	6.87	7.87	7.72	7.39	8.06	7.16	5.76	6.59	8.66	7.67	5.36	5.54	5.75	6.49	8.11	7.15	7.01	7.14	7.03	9.12	9.70	8.23	7.93	8.00	8.24	8.89	7.68	6.54	6.10	6.08	6.27	6.61	6.40	4.65	3.84	5.24	6.91	7.12	6.17	5.89	8.76	8.69	6.72	6.63	7.46	8.42	8.92	8.56	7.19	6.76	6.94	7.29	5.94	4.76	6.57	7.70	7.49	8.65	9.70	9.41	8.93	7.78	6.44	5.84	6.04	5.89	5.51	6.04	7.33	8.90	8.35	6.76	7.12	7.40	7.42	7.51	7.41	7.41	
7.04	7.64	8.04	7.73	8.21	8.24	7.23	6.64	6.58	6.73	6.88	7.20	7.45	7.35	7.41	7.36	6.94	6.84	7.08	7.30	7.14	7.04	7.25	7.44	7.44	7.22	7.14	7.21	7.32	7.33	7.19	7.18	7.21	6.91	6.84	6.99	6.79	6.70	7.05	6.85	6.58	6.49	6.64	7.09	7.21	7.29	6.89	6.74	6.97	6.92	7.14	7.57	7.31	7.44	7.59	6.78	6.38	6.48	7.78	8.08	6.73	6.09	5.83	6.56	7.64	7.06	6.66	6.52	6.68	9.02	9.62	8.36	8.07	7.50	7.51	8.11	7.35	6.71	6.14	5.98	6.05	6.70	7.14	5.62	4.15	4.76	6.21	7.48	7.65	7.17	8.53	7.83	6.68	7.26	7.98	8.04	7.90	8.72	8.36	7.16	6.51	6.90	6.14	4.74	5.84	7.27	7.71	8.76	8.91	8.11	8.96	8.87	7.63	6.94	6.10	5.29	5.42	6.20	6.76	7.99	8.44	7.27	7.11	7.55	7.65	7.99	8.15	8.15	
6.62	7.08	8.08	7.99	7.78	7.74	7.26	7.08	7.01	6.93	7.02	7.23	7.12	7.12	7.34	7.25	7.00	6.95	7.08	7.42	7.41	7.15	7.13	7.32	7.40	7.18	7.09	7.22	7.52	7.58	7.17	7.14	7.37	6.88	6.77	7.12	6.94	6.71	6.94	7.09	6.88	6.78	6.80	6.90	7.01	7.21	6.99	6.53	6.71	7.35	7.37	6.97	7.03	7.41	7.15	6.34	6.27	6.58	7.51	7.78	7.88	7.80	6.28	5.93	6.80	7.29	6.72	6.38	6.77	9.04	8.92	7.64	8.33	8.44	8.64	7.91	6.86	6.47	6.44	6.51	6.02	6.26	6.80	5.96	4.61	4.46	5.31	6.61	8.37	8.81	8.12	7.01	6.25	7.60	8.71	7.80	6.87	7.48	8.94	8.11	6.71	6.71	6.29	5.31	5.86	6.78	7.48	8.93	8.63	6.92	7.96	9.01	7.79	7.09	6.56	5.30	5.51	6.67	6.83	7.59	7.85	7.19	7.10	7.20	7.10	7.94	8.79	8.79	
6.47	6.61	7.98	8.41	7.76	7.34	7.02	7.13	7.16	7.16	7.24	7.30	7.07	7.04	7.18	7.09	7.00	7.09	7.07	7.29	7.54	7.34	7.08	7.17	7.33	7.16	6.92	7.16	7.84	8.05	7.46	7.27	7.38	6.90	6.87	7.16	7.09	6.89	6.88	7.00	6.90	6.92	7.01	6.95	7.01	7.26	7.11	6.52	6.49	7.24	7.43	7.07	7.00	7.11	6.47	6.03	6.40	6.77	7.60	7.68	8.13	9.10	8.34	6.80	6.73	7.41	7.21	7.06	6.77	8.71	8.79	6.42	7.01	8.39	10.05	9.31	7.25	6.45	6.35	6.67	6.39	6.44	6.38	5.57	4.88	4.64	5.15	5.87	8.06	9.58	7.19	6.43	6.57	7.49	8.92	8.20	6.36	6.11	8.43	8.66	7.09	6.24	6.16	6.19	6.56	6.99	7.34	8.60	8.58	6.44	6.78	9.03	8.42	6.82	6.25	5.39	5.59	6.81	7.00	7.46	7.49	6.96	7.25	7.39	7.05	7.58	8.34	8.34	
6.55	6.47	7.70	8.31	7.64	7.27	7.06	7.11	7.13	7.28	7.37	7.39	7.13	7.02	7.05	6.93	6.97	7.21	7.20	7.24	7.54	7.42	6.96	6.99	7.34	7.12	6.62	6.73	7.60	8.26	8.01	7.70	7.46	7.12	7.08	7.19	7.17	7.00	7.08	7.06	6.71	6.77	7.14	7.07	6.99	7.32	7.34	6.88	6.66	6.66	6.84	7.29	7.14	6.88	5.86	5.38	6.02	6.55	7.01	7.40	7.37	8.05	9.48	8.98	7.82	7.55	7.81	8.08	6.75	7.37	9.29	6.93	5.27	6.34	9.71	10.59	7.86	6.18	6.41	6.68	6.47	6.84	6.55	5.39	5.02	5.04	5.40	5.74	7.90	9.74	6.63	5.79	7.18	7.67	8.55	8.65	6.68	5.66	7.80	8.71	7.21	5.76	5.60	6.74	7.70	7.72	7.25	7.67	8.58	7.36	5.88	7.88	9.15	7.69	6.45	5.61	5.93	7.01	7.07	7.27	7.24	6.90	7.35	7.47	7.44	7.52	7.47	7.47	
6.94	6.72	7.49	7.90	7.40	7.24	7.16	7.10	7.09	7.28	7.33	7.58	7.39	6.91	6.88	6.85	6.95	7.22	7.37	7.38	7.59	7.52	6.80	6.93	7.46	7.10	6.71	6.49	6.77	7.75	8.03	7.74	7.50	7.59	7.43	7.19	7.29	7.07	7.30	7.34	6.54	6.59	7.36	7.22	6.95	7.33	7.53	7.38	7.18	6.57	6.36	6.78	6.86	6.73	5.58	5.00	5.51	6.07	6.47	6.71	6.42	6.22	7.90	9.30	8.55	7.39	7.64	8.57	7.08	6.62	9.25	8.41	5.51	5.16	8.47	10.95	9.03	6.19	6.43	7.05	6.38	6.78	6.75	5.56	5.18	5.43	5.75	5.84	7.97	9.79	7.17	5.50	6.76	7.99	8.29	8.74	7.27	5.49	7.41	8.67	7.24	5.79	5.15	6.55	8.34	8.28	7.21	6.69	7.97	8.45	6.44	6.58	8.38	8.06	7.06	6.09	6.32	7.42	7.20	7.42	7.14	6.75	7.65	7.40	7.39	7.52	7.15	7.15	
7.60	7.14	7.12	7.41	7.26	7.20	7.29	7.12	6.93	7.20	7.27	7.63	7.77	7.04	6.64	6.78	7.03	7.18	7.47	7.54	7.54	7.53	6.88	6.97	7.47	7.00	6.97	6.86	6.60	7.27	7.59	7.31	7.32	8.03	7.83	7.24	7.36	6.98	7.25	7.32	6.43	6.66	7.45	7.28	6.97	7.33	7.57	7.65	7.74	7.18	6.54	6.36	6.56	6.67	5.61	4.92	5.58	6.25	6.54	6.51	6.15	6.23	7.23	8.74	9.08	7.57	7.05	7.83	7.13	7.17	9.00	8.83	6.55	5.02	7.31	10.25	9.77	7.21	6.55	7.21	6.84	6.75	6.66	5.80	5.34	5.74	6.28	6.21	7.63	9.44	8.24	5.65	5.84	7.84	8.12	9.09	7.87	5.42	6.90	8.22	7.12	5.58	5.16	6.70	8.17	8.28	7.41	6.61	7.33	8.34	7.79	7.16	7.55	7.57	7.28	6.46	6.47	7.47	7.14	7.48	7.42	6.75	7.87	8.08	7.38	7.23	7.24	7.24	
8.32	7.64	6.81	6.88	7.07	7.07	7.38	7.32	6.80	7.02	7.25	7.43	7.82	7.34	6.62	6.69	7.13	7.24	7.44	7.53	7.35	7.55	7.36	7.20	7.45	7.07	7.01	7.01	6.81	7.12	7.19	6.64	6.99	8.29	8.08	7.54	7.71	7.15	7.15	7.11	6.42	6.94	7.52	7.25	7.14	7.38	7.52	7.59	7.87	7.86	7.27	6.86	7.05	7.10	6.04	4.90	5.45	6.47	6.93	6.70	5.90	6.18	6.96	8.31	9.39	8.12	7.08	6.90	6.59	7.27	8.17	8.81	7.85	5.65	6.45	8.93	9.31	8.13	7.16	7.06	7.23	7.03	6.61	5.95	5.40	5.79	6.85	6.92	7.12	8.71	8.85	6.28	5.74	7.34	7.54	9.22	8.96	6.44	6.78	7.61	6.76	5.02	5.30	7.24	7.74	7.73	7.38	6.78	7.03	7.45	7.79	7.91	7.50	7.15	7.26	6.94	6.79	7.28	6.99	7.19	7.53	6.73	7.36	8.80	8.07	7.19	7.39	7.39	
8.91	7.97	6.76	6.58	6.76	6.84	7.23	7.39	6.87	6.96	7.18	7.27	7.56	7.26	6.65	6.65	7.19	7.46	7.44	7.15	7.09	7.64	7.79	7.61	7.82	7.72	7.47	6.92	6.74	7.10	7.01	6.10	6.53	8.16	7.91	7.86	8.27	7.72	7.50	7.41	6.86	7.33	7.79	7.34	7.46	7.54	7.39	7.44	7.44	7.74	7.39	6.96	7.27	7.42	6.40	5.08	5.15	6.34	7.43	7.02	5.59	5.92	6.85	7.96	9.00	8.28	7.76	6.86	6.50	7.08	6.86	7.89	8.67	6.99	6.36	7.65	8.26	7.89	7.45	7.00	7.15	7.20	6.69	6.15	5.49	5.51	6.85	7.53	7.00	7.87	8.78	7.32	6.42	7.05	7.16	8.42	9.29	8.05	7.49	7.81	6.67	4.69	5.37	7.51	7.57	7.11	7.32	7.02	6.98	7.00	7.22	7.76	7.52	6.94	7.01	7.30	7.25	7.15	6.88	7.21	7.41	6.37	6.61	8.32	8.60	7.84	7.55	7.55	
9.46	8.11	6.70	6.54	6.50	6.56	6.92	7.19	6.95	7.01	7.13	7.30	7.38	6.95	6.54	6.64	7.22	7.60	7.40	6.80	6.90	7.65	7.75	7.57	7.92	8.29	8.41	7.44	6.83	7.21	7.08	6.20	6.52	7.82	7.44	7.74	8.33	7.62	7.68	7.63	7.04	7.66	7.99	7.26	7.61	7.72	7.23	7.34	7.04	7.40	7.37	6.86	7.33	7.63	6.60	5.32	5.00	6.16	7.67	7.02	5.87	6.32	7.23	8.03	8.11	7.79	8.38	7.58	6.87	6.90	6.33	7.27	8.25	8.04	7.22	7.00	7.50	7.53	7.44	7.08	7.05	7.14	6.76	6.39	5.84	5.51	6.38	7.54	7.10	7.19	8.12	7.75	7.14	7.24	7.20	7.49	8.62	8.57	8.25	8.54	7.38	5.09	5.31	7.51	7.57	6.94	7.23	7.24	7.08	6.96	7.06	7.44	7.51	7.08	6.91	7.19	7.36	7.04	6.67	7.25	7.31	6.26	6.68	7.46	8.04	8.31	7.84	7.84	
9.57	8.49	7.10	6.80	6.60	6.39	6.69	7.00	6.94	6.99	7.19	7.48	7.25	6.62	6.44	6.68	7.18	7.42	7.09	6.78	6.93	7.41	7.55	7.26	7.30	7.75	8.45	8.22	7.55	7.58	7.40	6.79	6.93	7.59	7.15	7.44	8.06	7.08	7.22	7.40	6.60	7.68	8.09	7.19	7.61	7.83	7.34	7.26	6.89	7.21	7.40	6.74	7.34	7.93	7.00	5.75	5.01	5.99	7.44	6.85	6.33	6.92	7.72	8.08	7.42	7.16	8.35	8.23	7.50	6.96	6.28	7.25	7.63	7.97	7.93	7.19	7.23	7.32	7.38	7.14	7.05	7.02	6.82	6.62	6.30	5.98	6.28	7.11	6.98	7.06	7.62	7.54	7.58	7.47	7.18	7.16	7.72	8.15	8.31	8.46	7.95	6.07	5.66	7.34	7.45	7.10	7.16	7.24	7.15	6.99	6.92	7.04	7.29	7.20	7.12	7.20	7.33	7.09	6.73	7.06	7.08	6.38	7.03	7.34	7.41	8.11	7.99	7.99	
8.95	8.48	7.78	7.34	7.13	6.68	6.63	7.02	6.94	6.88	7.32	7.81	7.18	6.28	6.38	6.86	7.15	7.00	6.82	6.95	7.06	7.23	7.42	7.23	6.92	7.09	7.59	7.78	7.46	7.43	7.18	6.90	7.29	7.55	7.25	7.25	7.66	6.85	6.62	7.12	6.87	7.48	7.83	7.33	7.45	7.83	7.72	7.35	6.83	6.92	7.34	6.66	7.08	7.95	7.43	6.47	5.35	5.74	6.83	6.71	6.75	7.43	7.86	7.77	7.38	7.16	7.77	8.19	8.05	7.40	6.40	7.05	7.61	7.58	7.64	7.41	7.37	7.30	7.28	7.18	7.06	6.95	6.87	6.80	6.61	6.46	6.52	6.74	6.64	6.92	7.47	7.46	7.85	7.43	6.90	7.37	7.24	7.82	8.31	8.00	7.81	6.75	6.40	7.15	7.27	7.19	7.20	7.22	7.20	7.12	6.98	6.93	7.09	7.14	7.16	7.21	7.26	7.15	6.96	6.97	6.88	6.49	6.98	7.42	7.39	7.75	7.80	7.80	
8.50	8.00	7.63	7.42	7.35	7.13	6.75	7.02	6.98	6.75	7.30	8.13	7.43	6.07	6.28	6.95	7.02	6.71	6.88	7.21	7.15	7.33	7.30	7.07	6.86	7.11	7.38	7.42	7.19	7.13	6.90	6.93	7.49	7.60	7.55	7.49	7.45	6.90	6.23	6.73	7.54	7.33	7.46	7.49	7.12	7.53	7.98	7.75	6.99	6.74	7.17	6.78	6.81	7.67	7.60	7.02	6.15	5.63	6.18	6.55	6.91	7.91	7.90	7.13	7.47	7.54	7.15	7.71	8.17	7.91	6.93	6.82	7.64	7.59	7.27	7.27	7.42	7.39	7.29	7.22	7.09	6.98	6.96	6.92	6.80	6.74	6.76	6.70	6.45	6.47	7.21	7.53	7.88	7.46	6.88	7.48	7.20	7.63	8.14	7.86	7.62	7.09	6.95	7.09	7.18	7.19	7.19	7.22	7.25	7.21	7.15	7.11	7.10	7.09	7.13	7.18	7.16	7.13	7.09	6.98	6.88	6.71	6.80	7.18	7.39	7.44	7.43	7.43	
8.74	7.96	7.16	7.08	7.12	7.10	6.83	6.93	6.94	6.75	7.08	8.07	7.79	6.10	6.20	6.82	6.83	6.76	7.02	7.25	7.37	7.69	7.21	6.73	6.81	7.18	7.25	7.42	7.37	7.07	6.89	7.14	7.64	7.46	7.37	7.81	7.67	7.01	6.23	6.47	7.70	7.42	7.29	7.51	7.05	7.17	7.85	8.02	7.30	6.93	7.09	6.92	6.72	7.40	7.46	6.88	6.81	6.00	5.80	6.38	6.89	7.96	7.89	6.98	7.53	7.79	6.84	7.17	7.92	8.05	7.50	6.95	7.35	7.53	7.29	7.22	7.34	7.33	7.28	7.22	7.11	7.05	7.03	7.00	6.93	6.90	6.89	6.85	6.62	6.44	6.93	7.36	7.54	7.40	7.15	7.41	7.32	7.46	7.70	7.67	7.51	7.26	7.16	7.14	7.18	7.19	7.20	7.21	7.28	7.27	7.28	7.30	7.22	7.08	7.12	7.17	7.08	7.16	7.13	7.00	6.89	6.74	6.93	7.20	7.14	7.01	6.99	6.99	
9.05	8.24	7.15	6.88	7.01	7.00	6.73	6.82	6.83	6.84	7.04	7.79	7.84	6.32	6.14	6.51	6.71	7.04	7.09	7.10	7.49	8.08	7.35	6.40	6.78	7.20	7.05	7.11	7.19	7.14	7.12	7.44	7.76	7.34	6.83	7.57	7.92	7.20	6.52	6.45	7.46	7.68	7.15	7.14	7.11	7.18	7.60	7.77	7.55	7.19	7.13	7.08	7.00	7.48	7.31	6.60	6.87	6.60	5.87	6.13	7.07	7.86	7.42	7.05	7.62	7.97	7.03	6.75	7.53	7.90	7.74	7.29	7.20	7.32	7.29	7.29	7.38	7.28	7.21	7.20	7.13	7.11	7.11	7.08	7.04	7.02	7.00	6.98	6.88	6.78	6.93	7.16	7.25	7.22	7.23	7.33	7.39	7.39	7.43	7.44	7.38	7.29	7.19	7.15	7.17	7.18	7.21	7.22	7.21	7.27	7.32	7.48	7.46	7.18	7.30	7.28	7.09	7.26	7.27	7.12	6.89	6.45	6.83	7.65	7.35	6.67	6.47	6.47	
9.03	8.41	7.46	6.96	7.05	7.12	6.73	6.74	6.73	6.76	7.11	7.74	7.67	6.45	6.24	6.40	6.70	7.20	7.01	7.11	7.45	8.13	7.77	6.37	6.69	7.17	7.17	7.01	6.71	7.05	7.44	7.87	7.97	7.40	6.61	7.11	7.77	7.28	6.77	6.44	7.25	7.98	7.18	6.79	6.98	7.46	7.50	7.23	7.66	7.36	6.92	6.89	7.45	7.72	7.10	6.64	6.88	7.01	6.13	5.95	7.10	8.01	7.21	6.78	7.50	7.96	7.46	6.88	7.32	7.71	7.69	7.46	7.31	7.30	7.21	7.26	7.41	7.32	7.22	7.19	7.15	7.14	7.15	7.15	7.12	7.11	7.09	7.07	7.04	7.04	7.08	7.15	7.20	7.20	7.22	7.25	7.32	7.37	7.36	7.36	7.33	7.18	7.07	7.10	7.13	7.19	7.25	7.25	7.18	7.27	7.13	7.34	7.51	7.22	7.50	7.49	7.20	7.40	7.56	7.21	6.90	6.27	6.13	7.39	8.02	7.08	6.24	6.24	
8.87	8.40	7.48	7.11	7.24	7.07	6.78	6.76	6.69	6.55	6.80	7.76	7.54	6.10	6.29	6.90	6.92	7.17	6.83	7.09	7.42	7.75	8.06	6.93	6.63	6.98	7.18	7.03	6.65	6.96	7.43	8.00	8.21	7.62	6.74	6.88	7.43	7.20	6.87	6.37	7.10	8.06	7.25	6.73	6.96	7.65	7.36	6.95	7.78	7.60	6.76	6.71	7.77	7.82	6.92	6.56	6.95	7.28	6.34	6.00	6.81	8.00	7.58	6.63	7.26	7.65	7.44	7.23	7.33	7.58	7.54	7.42	7.39	7.38	7.22	7.21	7.33	7.32	7.25	7.20	7.18	7.16	7.17	7.20	7.19	7.18	7.15	7.14	7.13	7.18	7.23	7.19	7.20	7.23	7.22	7.23	7.19	7.29	7.50	7.44	7.49	7.10	6.72	6.94	7.08	7.39	7.31	7.17	7.23	7.40	7.22	7.03	7.33	7.21	7.19	7.37	7.19	7.34	7.75	7.29	6.89	6.22	5.57	6.33	7.66	7.68	6.94	6.94	
8.92	8.37	7.19	7.11	7.66	7.05	6.71	6.79	6.74	6.38	6.23	7.39	7.51	5.83	5.87	7.41	7.46	7.01	6.64	7.12	7.52	7.19	7.84	7.66	6.76	6.94	7.13	6.86	6.80	7.11	7.45	7.92	8.34	7.84	7.00	6.88	7.05	7.03	6.87	6.40	6.94	7.85	7.29	6.69	7.24	7.80	6.98	6.75	7.78	7.64	6.74	6.92	7.95	7.78	7.00	6.56	6.94	7.39	6.65	6.22	6.54	7.60	7.75	6.91	7.16	7.36	7.26	7.30	7.34	7.45	7.41	7.32	7.37	7.42	7.27	7.20	7.26	7.28	7.25	7.23	7.20	7.17	7.18	7.25	7.26	7.21	7.18	7.18	7.17	7.29	7.43	7.29	7.14	7.19	7.13	7.16	7.24	7.16	7.52	7.85	7.95	7.16	6.41	6.59	6.96	7.77	7.49	7.00	7.07	7.41	7.66	7.05	7.47	7.79	7.13	7.20	7.18	7.19	7.60	7.52	7.12	6.22	5.41	5.66	6.76	7.47	7.47	7.47	
8.74	8.56	7.38	7.14	8.03	7.43	6.96	7.02	6.87	6.30	5.92	6.75	6.97	5.96	5.63	7.26	8.03	6.71	6.15	7.26	7.78	6.91	7.39	7.85	6.99	6.95	7.14	6.95	6.75	7.12	7.49	7.79	8.43	8.18	7.35	7.00	6.87	6.88	6.62	6.50	6.94	7.42	7.25	6.59	7.47	8.09	6.97	6.67	7.45	7.48	6.79	7.06	7.96	7.85	7.16	6.68	6.86	7.40	7.08	6.52	6.55	7.27	7.57	7.19	7.16	7.26	7.28	7.31	7.32	7.32	7.33	7.26	7.29	7.39	7.29	7.22	7.25	7.25	7.26	7.24	7.20	7.14	7.16	7.28	7.33	7.23	7.20	7.25	7.16	7.25	7.62	7.66	7.20	7.04	6.93	6.79	7.27	7.22	7.04	8.10	8.56	7.23	6.17	6.22	6.95	8.03	7.79	7.00	6.70	7.15	7.72	7.19	7.50	8.24	7.86	7.58	7.24	7.29	7.49	7.60	7.42	6.46	5.61	5.36	6.41	7.12	7.00	7.00	
7.65	8.31	8.01	7.54	8.34	8.09	7.70	7.52	7.02	6.46	6.12	6.42	6.01	5.75	5.88	6.99	8.26	6.54	5.79	7.30	7.88	6.93	7.13	7.65	7.10	6.89	7.18	7.40	6.96	7.09	7.38	7.46	8.07	8.40	7.91	7.18	6.93	7.02	6.38	6.43	7.09	7.15	7.05	6.50	7.32	8.21	7.42	6.87	7.05	7.39	6.93	6.90	7.75	7.98	7.41	6.76	6.67	7.38	7.44	6.81	6.79	7.17	7.37	7.23	7.18	7.25	7.29	7.33	7.31	7.24	7.26	7.25	7.24	7.29	7.27	7.23	7.25	7.23	7.25	7.25	7.19	7.13	7.13	7.25	7.29	7.16	7.18	7.38	7.27	7.08	7.51	8.01	7.58	6.93	6.81	6.33	6.89	7.41	6.52	7.74	9.02	7.54	5.88	5.79	7.10	8.22	8.14	7.30	6.67	7.05	7.52	7.28	7.25	7.66	8.24	8.42	7.62	7.63	7.91	7.84	7.55	6.69	6.04	5.25	6.20	6.99	6.50	6.50	
6.76	7.54	7.71	7.54	8.62	9.07	8.85	8.29	7.29	6.98	6.68	6.38	5.50	5.10	5.61	6.73	8.13	6.89	6.17	7.36	7.91	7.20	6.91	7.38	7.02	6.84	7.20	7.59	7.59	7.40	7.53	7.45	7.46	8.11	8.16	7.34	6.86	7.05	6.37	6.24	7.15	7.21	6.88	6.49	7.04	8.02	7.80	7.09	6.77	7.28	7.11	6.79	7.52	7.92	7.60	6.94	6.64	7.28	7.48	7.05	7.04	7.21	7.31	7.24	7.22	7.28	7.30	7.32	7.32	7.23	7.21	7.23	7.21	7.20	7.22	7.22	7.23	7.29	7.28	7.22	7.08	7.12	7.23	7.19	7.17	7.00	7.14	7.44	7.49	7.31	7.29	7.83	7.99	7.10	6.79	6.20	6.28	7.40	6.55	7.01	8.75	8.09	6.11	5.57	6.71	7.89	8.28	7.77	7.13	7.45	7.68	7.46	7.40	6.95	7.57	8.56	8.05	8.07	8.44	8.47	8.22	7.08	6.19	5.42	5.89	6.78	6.69	6.69	
6.33	7.28	7.06	6.42	7.87	9.15	9.73	9.48	8.20	7.83	7.46	6.71	5.98	5.02	5.02	6.04	7.48	7.03	6.70	7.23	7.91	7.73	6.89	7.06	6.83	6.91	7.16	7.31	7.76	7.68	8.07	8.07	7.44	7.94	8.02	7.38	6.99	6.91	6.43	6.17	7.03	7.33	6.81	6.60	6.85	7.70	8.04	7.36	6.75	6.95	7.06	6.89	7.52	7.74	7.46	7.15	6.88	7.22	7.33	7.18	7.19	7.24	7.31	7.32	7.31	7.30	7.30	7.28	7.26	7.22	7.15	7.13	7.13	7.14	7.19	7.22	7.15	7.36	7.49	7.20	6.94	6.97	7.29	7.36	7.05	6.59	7.07	7.52	7.64	7.76	7.48	7.70	8.11	7.54	7.04	6.67	6.20	7.26	7.33	6.79	7.84	8.15	6.94	6.32	6.59	7.18	7.67	7.66	7.24	7.59	8.04	7.54	7.40	6.77	6.99	7.90	7.65	8.05	8.53	8.74	9.32	8.23	6.50	5.86	5.79	6.44	6.94	6.94	
5.79	7.10	6.97	5.87	6.79	7.93	8.89	9.48	8.93	8.75	8.23	7.48	7.24	5.95	5.18	5.56	6.58	6.94	6.94	6.93	7.55	7.90	7.08	6.84	6.78	6.95	7.23	7.10	7.29	7.36	8.00	8.61	8.02	8.10	7.93	7.29	7.13	6.96	6.54	6.16	6.77	7.37	6.94	6.71	6.73	7.45	8.07	7.64	7.11	6.81	6.68	6.84	7.59	7.58	7.26	7.23	7.14	7.22	7.24	7.23	7.25	7.26	7.32	7.46	7.50	7.32	7.32	7.33	7.20	7.26	7.13	6.93	6.95	6.93	7.13	7.35	7.07	7.30	7.69	7.46	7.25	6.68	6.72	7.57	7.07	6.01	6.53	7.46	7.82	7.77	7.87	8.24	8.15	7.66	7.36	7.35	6.74	7.06	7.89	7.38	7.36	7.70	7.24	7.05	7.08	7.01	7.08	7.18	6.94	7.33	8.13	7.76	7.24	6.68	6.80	7.27	7.01	7.31	7.86	8.26	9.24	9.27	7.71	6.55	6.21	6.43	6.72	6.72	
5.77	6.73	6.99	6.39	6.81	7.44	8.09	8.32	8.14	8.94	8.65	7.43	7.55	7.05	5.94	5.59	6.08	6.92	7.13	6.98	7.33	7.65	6.99	6.61	6.85	6.89	7.34	7.32	7.08	7.12	7.52	8.52	8.49	8.27	8.14	7.40	7.11	7.13	6.82	6.32	6.39	7.17	7.27	6.75	6.64	7.37	7.90	7.61	7.46	7.17	6.65	6.76	7.45	7.41	7.19	7.24	7.25	7.24	7.25	7.26	7.26	7.26	7.31	7.52	7.75	7.44	7.39	7.48	7.22	7.45	7.19	6.66	6.81	6.61	6.75	7.54	7.24	7.03	7.48	7.86	8.05	6.89	6.24	7.43	7.45	5.99	5.82	6.91	7.56	7.28	7.48	8.51	8.19	7.27	7.15	7.23	6.85	6.87	7.56	7.52	7.32	7.37	7.20	7.17	7.37	7.22	7.10	7.02	6.90	7.37	7.88	7.88	7.42	6.74	6.70	6.82	6.83	6.73	7.15	7.83	8.09	8.95	8.83	7.43	7.00	6.96	6.61	6.61	
5.76	6.36	6.88	6.92	7.01	7.62	8.62	7.82	6.89	8.50	9.18	7.43	6.94	7.35	6.55	5.83	5.95	6.73	7.27	7.30	7.57	7.66	7.09	6.55	6.63	6.78	7.25	7.55	7.26	7.10	7.50	8.31	8.16	8.12	8.43	7.70	7.23	7.24	7.01	6.73	6.30	6.61	7.38	6.96	6.50	7.33	7.76	7.41	7.39	7.41	7.05	6.97	7.29	7.29	7.19	7.22	7.26	7.27	7.29	7.28	7.26	7.29	7.33	7.38	7.83	7.67	7.41	7.58	7.41	7.69	7.28	6.38	6.77	6.74	6.06	7.22	7.74	6.99	6.93	7.67	8.34	7.66	6.88	7.11	7.47	6.59	5.87	6.50	6.99	6.78	7.07	8.26	8.19	7.36	7.09	7.02	6.84	7.02	7.30	7.27	7.15	7.14	7.18	7.17	7.35	7.27	7.28	7.03	6.94	7.41	7.62	7.82	7.67	7.07	6.84	6.66	6.72	6.59	6.89	7.45	7.17	7.80	8.56	7.74	7.32	7.62	7.50	7.50	
5.48	6.03	6.99	7.09	6.53	7.26	9.21	8.27	6.32	7.89	9.32	8.11	7.19	7.29	6.83	6.08	5.89	6.44	7.14	7.37	7.63	7.77	7.54	6.94	6.40	6.52	6.89	7.28	7.41	7.22	7.73	8.38	7.60	7.48	8.36	8.11	7.51	7.21	6.92	6.99	6.83	6.28	6.94	7.28	6.49	7.11	7.65	7.31	7.22	7.26	7.25	7.21	7.25	7.25	7.21	7.21	7.27	7.33	7.36	7.29	7.26	7.37	7.39	7.11	7.60	7.96	7.41	7.37	7.61	7.80	7.31	5.94	6.39	7.14	5.77	6.28	7.84	7.62	6.88	7.22	7.77	7.73	7.63	7.17	7.14	6.92	6.37	6.54	6.84	6.72	7.22	7.88	7.84	7.73	7.20	6.96	6.96	7.14	7.34	7.31	7.11	6.99	6.97	7.09	7.43	7.38	7.42	7.28	7.11	7.22	7.54	7.85	7.70	7.28	7.06	6.79	6.61	6.67	6.83	7.05	6.89	7.19	7.73	7.46	6.99	7.63	8.39	8.39	
5.07	5.69	7.27	7.19	6.26	7.02	8.87	8.55	6.62	7.54	8.64	8.00	7.89	7.60	7.12	6.41	5.87	6.26	6.91	7.38	7.55	7.61	7.61	7.25	6.73	6.69	6.68	6.68	7.25	7.54	7.86	8.37	7.71	7.05	7.75	8.43	8.14	7.30	6.72	6.88	7.38	6.70	6.42	7.25	6.91	6.93	7.40	7.30	7.16	7.13	7.21	7.24	7.24	7.22	7.19	7.16	7.31	7.52	7.45	7.28	7.32	7.48	7.61	7.08	7.14	8.10	7.74	7.34	7.62	7.79	7.61	6.12	6.10	7.14	6.22	5.66	7.01	7.98	7.51	7.30	7.21	7.38	7.84	7.48	7.28	7.09	6.68	6.69	6.91	6.92	7.31	7.62	7.53	7.65	7.27	7.04	7.18	7.18	7.30	7.53	7.38	7.19	6.92	6.85	7.32	7.60	7.65	7.66	7.62	7.28	7.60	8.05	7.95	7.57	7.31	7.14	6.71	6.69	6.78	6.86	6.91	7.07	7.22	7.23	6.93	7.44	8.37	8.37	
4.87	5.50	7.15	7.20	6.69	7.60	8.62	8.17	7.11	7.69	7.77	7.36	7.93	7.68	7.30	6.91	6.02	6.13	6.77	7.50	7.88	7.64	7.38	7.21	7.11	7.28	6.79	6.33	7.13	7.61	7.75	8.11	7.89	7.11	7.08	8.16	8.60	7.58	6.77	6.69	7.34	7.34	6.39	6.79	7.23	7.01	7.17	7.27	7.14	7.12	7.18	7.19	7.20	7.19	7.15	7.04	7.20	7.87	7.80	7.24	7.38	7.53	7.91	7.57	6.86	7.75	8.08	7.82	7.79	7.69	7.98	7.38	6.56	6.75	6.68	6.07	6.35	7.43	7.76	7.59	7.00	7.05	7.71	7.53	7.43	7.33	6.94	6.84	6.88	7.02	7.27	7.47	7.59	7.42	6.98	6.98	7.43	7.30	7.17	7.56	7.55	7.43	7.17	6.76	6.87	7.26	7.46	7.51	7.71	7.54	7.56	8.02	8.27	7.98	7.81	7.80	7.29	6.78	6.68	6.88	6.90	6.95	7.02	7.08	7.09	7.42	7.90	7.90	
5.43	5.72	6.43	6.68	6.98	7.78	8.84	8.43	7.29	7.75	7.29	6.95	7.87	7.52	7.03	7.07	6.36	6.07	6.66	7.49	8.03	7.84	7.25	7.16	7.22	7.40	6.78	6.38	7.37	7.40	7.51	8.04	7.80	7.10	6.86	7.79	8.45	7.78	7.32	6.80	6.92	7.67	6.81	6.51	7.13	7.10	7.13	7.24	7.15	7.12	7.15	7.13	7.13	7.13	7.06	6.98	6.91	7.69	8.22	7.24	7.24	7.44	7.77	7.94	7.01	7.24	7.86	7.90	7.67	7.48	7.77	7.83	7.09	6.43	6.65	6.82	6.67	6.95	7.38	7.52	7.08	6.91	7.40	7.50	7.30	7.29	7.16	7.04	6.96	7.03	7.23	7.32	7.54	7.48	6.76	6.56	7.26	7.22	7.03	7.40	7.44	7.33	7.20	7.00	6.91	6.94	7.10	7.18	7.15	7.41	7.36	7.64	8.09	7.86	7.99	8.17	8.12	7.39	6.80	7.03	6.92	6.70	6.81	7.14	7.25	7.40	7.59	7.59	
6.18	6.20	6.05	6.09	6.73	7.20	8.81	9.16	7.46	7.58	7.32	6.81	7.62	7.62	6.90	6.72	6.48	6.18	6.71	7.43	7.68	7.94	7.42	7.08	7.48	7.31	6.72	6.64	7.50	7.25	7.18	8.12	7.88	7.06	6.98	7.60	7.91	7.71	7.82	7.25	6.68	7.49	7.24	6.68	7.00	7.08	7.12	7.21	7.18	7.14	7.11	7.09	7.02	7.06	7.06	7.04	6.83	7.26	8.17	7.33	7.23	7.48	7.58	7.83	7.10	7.03	7.62	7.80	7.29	7.56	7.83	7.59	7.37	6.71	6.60	7.05	7.21	7.00	7.15	7.27	7.08	7.00	7.13	7.45	7.31	7.13	7.19	7.15	7.07	7.08	7.24	7.30	7.33	7.51	7.02	6.54	6.99	6.98	6.92	7.30	7.47	7.22	6.96	7.20	7.22	6.97	7.06	7.11	6.81	7.09	7.18	7.31	7.77	7.62	7.76	7.94	8.38	7.99	7.22	7.26	7.27	6.75	6.47	7.08	7.38	7.53	7.70	7.70	
6.59	6.57	6.28	6.13	6.21	6.36	8.43	9.61	8.03	7.46	7.48	7.07	7.23	7.43	6.89	6.48	6.37	6.41	6.95	7.45	7.24	7.81	7.70	6.70	7.40	7.33	7.15	7.12	7.31	7.22	6.99	7.96	7.82	7.22	7.39	7.44	7.29	7.52	7.71	7.65	7.13	7.08	7.23	6.96	6.99	7.10	7.11	7.18	7.18	7.15	7.08	7.06	6.81	6.85	7.23	7.15	6.89	7.39	7.86	7.18	7.30	7.61	7.65	7.88	7.19	6.91	7.52	7.70	7.25	7.54	7.88	7.39	7.28	7.20	6.91	6.97	7.36	7.22	7.16	7.23	7.01	7.05	7.10	7.32	7.34	7.13	7.14	7.18	7.12	7.09	7.24	7.33	7.29	7.40	7.18	6.89	6.93	6.82	6.83	7.15	7.43	7.18	6.86	7.17	7.30	7.12	7.12	7.08	6.79	6.99	7.15	7.05	7.51	7.61	7.41	7.78	8.37	8.08	7.49	7.31	7.60	7.26	6.47	6.85	7.25	7.64	8.01	8.01	
6.77	6.74	6.58	6.46	6.04	5.78	7.46	9.44	8.94	7.74	7.53	7.47	7.35	7.01	6.53	6.44	6.41	6.53	7.10	7.67	7.19	7.67	7.69	6.41	7.03	7.21	7.45	7.53	7.27	7.02	7.00	7.87	7.54	7.26	7.78	7.54	6.99	7.42	7.40	7.55	7.70	7.08	7.06	7.12	7.05	7.12	7.13	7.16	7.17	7.16	7.07	7.03	6.59	6.50	7.36	7.41	6.95	7.29	7.54	6.95	7.10	7.42	7.34	8.02	7.58	6.84	7.34	7.46	7.42	7.50	7.63	7.30	7.04	7.25	7.13	7.01	7.28	7.34	7.17	7.27	7.10	6.99	7.19	7.23	7.24	7.20	7.12	7.18	7.19	7.11	7.22	7.29	7.35	7.36	7.13	7.15	7.03	6.82	6.84	7.03	7.30	7.13	6.99	7.06	7.21	7.24	7.18	7.08	6.81	6.97	7.13	6.91	7.36	7.60	7.07	7.56	8.25	8.06	7.64	7.22	7.45	7.45	6.77	6.87	7.20	7.48	7.82	7.82	
6.89	6.86	6.78	6.68	6.31	5.86	6.45	8.24	9.28	8.66	7.93	7.66	7.64	7.00	6.29	6.41	6.58	6.48	6.99	7.95	7.77	7.78	7.30	6.35	6.97	7.34	7.18	7.66	7.68	6.74	6.82	7.87	7.57	7.15	7.80	7.68	7.03	7.29	7.32	7.35	7.62	7.27	7.10	7.17	7.13	7.15	7.15	7.14	7.15	7.16	7.11	7.06	6.49	6.20	7.16	7.78	7.60	7.18	7.23	7.18	6.97	7.11	6.94	7.76	7.94	7.00	7.05	7.31	7.56	7.61	7.44	7.25	7.16	7.21	7.05	7.12	7.29	7.27	7.19	7.31	7.26	6.97	7.20	7.24	7.17	7.27	7.13	7.16	7.21	7.18	7.33	7.26	7.29	7.38	7.13	7.17	7.15	6.94	6.85	6.96	7.20	7.13	7.14	7.09	7.10	7.19	7.21	7.11	6.84	6.97	6.98	6.86	7.26	7.50	7.18	7.38	7.72	7.84	7.78	7.39	7.27	7.14	6.92	7.13	7.50	7.48	7.35	7.35	
6.97	6.95	6.90	6.81	6.63	6.24	6.05	6.88	8.26	8.99	8.73	7.92	7.61	7.15	6.52	6.49	6.65	6.58	6.84	7.87	8.38	7.89	6.94	6.34	7.15	7.67	6.76	7.50	8.13	6.97	6.60	7.61	7.75	7.34	7.75	7.58	7.17	7.18	7.29	7.35	7.36	7.21	7.14	7.19	7.18	7.19	7.16	7.13	7.14	7.13	7.08	7.32	6.96	6.17	6.60	7.57	8.02	7.32	7.10	7.41	6.97	6.99	7.04	7.44	7.89	7.27	6.88	7.21	7.51	7.67	7.35	7.18	7.36	7.24	7.01	7.20	7.38	7.14	7.11	7.32	7.38	7.12	7.16	7.22	7.22	7.31	7.16	7.16	7.16	7.19	7.50	7.39	7.22	7.44	7.27	7.13	7.26	7.09	6.82	6.90	7.16	7.11	7.18	7.30	7.14	7.07	7.21	7.13	6.93	7.08	6.89	6.80	7.08	7.31	7.56	7.50	7.34	7.51	7.79	7.68	7.31	6.81	6.82	7.33	7.64	7.63	7.52	7.52	
7.05	7.03	6.99	6.93	6.83	6.61	6.24	6.36	7.03	8.13	8.96	8.28	7.53	7.04	6.74	6.53	6.63	6.88	6.82	7.66	8.47	8.07	6.96	6.23	7.27	7.83	6.67	7.25	7.92	7.36	6.82	7.24	7.57	7.59	7.84	7.45	7.27	7.26	7.25	7.32	7.26	7.13	7.11	7.17	7.18	7.18	7.14	7.11	7.08	7.17	6.95	7.21	7.72	6.78	6.42	7.28	7.65	7.21	7.20	7.38	6.99	7.01	7.29	7.37	7.61	7.43	6.96	7.18	7.50	7.56	7.21	7.30	7.41	7.09	7.13	7.27	7.36	7.16	7.04	7.23	7.32	7.24	7.13	7.11	7.25	7.33	7.24	7.14	7.06	7.17	7.52	7.45	7.24	7.45	7.39	7.19	7.31	7.25	6.91	6.85	7.09	7.09	7.16	7.48	7.25	6.96	7.16	7.21	7.09	7.18	6.95	6.85	6.96	7.12	7.60	7.52	7.21	7.35	7.66	7.78	7.51	6.81	6.65	7.27	7.47	7.56	7.79	7.79	
7.10	7.09	7.05	7.02	6.95	6.87	6.65	6.53	6.66	7.29	8.38	8.35	7.65	7.00	6.77	6.49	6.76	7.12	6.79	7.43	8.00	8.21	7.49	6.27	7.25	7.77	6.90	7.38	7.57	7.36	7.22	7.28	7.35	7.55	7.83	7.47	7.33	7.35	7.29	7.28	7.23	7.12	7.10	7.14	7.15	7.14	7.09	7.04	6.97	7.32	7.26	6.83	7.66	7.65	6.93	7.34	7.40	7.06	7.16	7.23	7.08	7.07	7.32	7.35	7.40	7.45	7.13	7.13	7.62	7.50	7.01	7.46	7.47	6.90	7.21	7.35	7.24	7.27	7.15	7.19	7.25	7.25	7.16	7.09	7.19	7.30	7.33	7.16	6.94	7.08	7.44	7.41	7.30	7.41	7.39	7.30	7.25	7.25	7.10	6.88	6.95	7.12	7.18	7.54	7.39	6.89	7.02	7.34	7.28	7.13	7.10	7.05	7.08	7.09	7.34	7.43	7.17	7.27	7.48	7.63	7.58	7.03	6.78	7.19	7.38	7.49	7.70	7.70	
7.15	7.14	7.11	7.09	7.05	7.01	6.94	6.87	6.82	7.02	7.59	7.95	7.67	7.13	6.75	6.49	6.96	7.19	6.89	7.22	7.32	7.83	7.80	6.82	7.40	7.58	7.04	7.46	7.54	7.33	7.28	7.44	7.43	7.49	7.64	7.50	7.39	7.36	7.32	7.30	7.24	7.14	7.11	7.11	7.13	7.10	7.01	6.86	6.84	7.36	7.80	7.15	7.12	7.80	7.47	7.33	7.45	7.24	7.08	7.09	7.15	7.17	7.26	7.26	7.25	7.37	7.22	7.08	7.54	7.53	7.12	7.44	7.48	6.99	7.15	7.33	7.22	7.30	7.27	7.22	7.27	7.17	7.13	7.20	7.20	7.27	7.39	7.21	6.96	7.01	7.25	7.35	7.39	7.39	7.40	7.42	7.25	7.19	7.21	6.98	6.81	7.03	7.15	7.44	7.46	6.98	6.93	7.35	7.42	7.07	7.18	7.25	7.32	7.21	7.10	7.39	7.28	7.26	7.38	7.51	7.49	7.15	7.01	7.18	7.34	7.49	7.61	7.61	
7.18	7.17	7.16	7.14	7.12	7.10	7.08	7.07	7.07	7.09	7.22	7.45	7.46	7.21	6.86	6.69	6.96	7.08	7.06	7.16	7.07	7.34	7.42	7.15	7.55	7.49	7.18	7.33	7.47	7.39	7.22	7.36	7.52	7.52	7.50	7.46	7.41	7.37	7.32	7.32	7.26	7.19	7.14	7.10	7.12	7.06	6.88	6.64	6.72	7.20	7.82	7.61	7.09	7.54	7.62	7.31	7.38	7.39	7.18	7.12	7.21	7.24	7.28	7.23	7.18	7.29	7.21	7.12	7.34	7.36	7.33	7.36	7.37	7.22	7.11	7.23	7.28	7.30	7.29	7.28	7.35	7.16	6.95	7.20	7.25	7.27	7.45	7.23	7.05	7.06	7.07	7.19	7.37	7.36	7.38	7.46	7.34	7.23	7.35	7.25	6.77	6.81	6.96	7.19	7.34	7.08	7.00	7.21	7.37	7.16	7.19	7.28	7.41	7.28	7.04	7.33	7.38	7.29	7.33	7.44	7.42	7.24	7.14	7.19	7.29	7.45	7.57	7.57	
7.21	7.20	7.19	7.18	7.17	7.16	7.16	7.16	7.18	7.20	7.22	7.24	7.25	7.18	7.04	6.94	6.94	6.99	7.12	7.17	7.13	7.20	7.14	7.10	7.42	7.44	7.29	7.32	7.39	7.40	7.28	7.26	7.47	7.53	7.46	7.44	7.40	7.35	7.30	7.30	7.26	7.22	7.18	7.14	7.12	7.05	6.82	6.57	6.71	6.99	7.51	7.74	7.34	7.37	7.53	7.40	7.33	7.35	7.28	7.22	7.24	7.28	7.31	7.26	7.18	7.28	7.23	7.16	7.27	7.27	7.33	7.29	7.29	7.28	7.09	7.16	7.32	7.30	7.28	7.30	7.43	7.30	6.92	7.11	7.20	7.22	7.43	7.24	7.14	7.14	7.08	7.12	7.23	7.27	7.28	7.32	7.38	7.31	7.56	7.70	6.96	6.66	6.81	6.96	7.08	7.00	6.96	7.06	7.18	7.22	7.22	7.25	7.38	7.27	7.12	7.26	7.36	7.32	7.32	7.36	7.35	7.30	7.23	7.22	7.28	7.41	7.52	7.52	
7.23	7.22	7.22	7.21	7.20	7.20	7.20	7.21	7.21	7.23	7.24	7.23	7.19	7.17	7.14	7.09	7.00	6.99	7.10	7.15	7.17	7.25	7.19	7.10	7.27	7.36	7.29	7.33	7.37	7.40	7.33	7.27	7.41	7.49	7.44	7.43	7.40	7.34	7.29	7.28	7.22	7.18	7.19	7.19	7.13	7.05	6.91	6.77	6.77	6.82	7.28	7.68	7.45	7.30	7.38	7.40	7.34	7.31	7.32	7.28	7.26	7.28	7.33	7.30	7.20	7.26	7.26	7.18	7.24	7.29	7.27	7.22	7.31	7.27	7.05	7.12	7.32	7.31	7.27	7.28	7.38	7.40	7.15	7.13	7.15	7.17	7.30	7.24	7.19	7.19	7.15	7.17	7.17	7.23	7.22	7.11	7.26	7.37	7.72	8.04	7.45	6.77	6.84	7.11	7.08	6.92	6.79	6.91	7.03	7.15	7.19	7.22	7.30	7.26	7.20	7.25	7.31	7.30	7.32	7.33	7.32	7.31	7.27	7.26	7.29	7.39	7.47	7.47	
7.24	7.24	7.23	7.23	7.23	7.23	7.23	7.23	7.24	7.24	7.24	7.23	7.21	7.19	7.18	7.15	7.09	7.06	7.07	7.08	7.14	7.26	7.25	7.16	7.21	7.29	7.30	7.31	7.33	7.37	7.33	7.31	7.39	7.43	7.41	7.39	7.39	7.36	7.32	7.28	7.19	7.15	7.19	7.21	7.16	7.06	7.04	7.01	6.83	6.77	7.19	7.55	7.41	7.28	7.30	7.34	7.33	7.30	7.32	7.31	7.27	7.26	7.33	7.33	7.24	7.26	7.25	7.19	7.24	7.26	7.22	7.22	7.32	7.28	7.06	7.12	7.29	7.32	7.27	7.26	7.26	7.32	7.33	7.24	7.20	7.15	7.16	7.20	7.22	7.21	7.17	7.19	7.16	7.22	7.20	7.03	7.08	7.22	7.58	8.03	7.94	7.17	6.94	7.47	7.55	7.04	6.73	6.79	6.91	7.05	7.12	7.18	7.23	7.23	7.21	7.27	7.29	7.26	7.29	7.30	7.31	7.30	7.26	7.28	7.32	7.38	7.44	7.44	
7.25	7.25	7.25	7.24	7.24	7.24	7.24	7.24	7.25	7.25	7.25	7.24	7.23	7.22	7.20	7.18	7.16	7.14	7.09	7.07	7.12	7.20	7.25	7.21	7.19	7.24	7.31	7.31	7.31	7.34	7.32	7.34	7.39	7.40	7.39	7.35	7.35	7.35	7.33	7.30	7.20	7.17	7.19	7.21	7.18	7.11	7.12	7.10	6.93	6.83	7.15	7.45	7.37	7.30	7.29	7.30	7.30	7.30	7.33	7.32	7.29	7.29	7.33	7.33	7.30	7.26	7.21	7.15	7.20	7.18	7.14	7.21	7.28	7.27	7.15	7.19	7.29	7.36	7.34	7.28	7.24	7.22	7.27	7.32	7.28	7.12	7.05	7.16	7.22	7.21	7.18	7.17	7.11	7.17	7.20	7.10	7.07	7.03	7.20	7.67	7.88	7.42	6.98	7.51	7.99	7.37	6.85	6.71	6.79	7.00	7.06	7.14	7.18	7.19	7.20	7.27	7.27	7.24	7.25	7.28	7.29	7.28	7.27	7.30	7.35	7.37	7.36	7.36	
7.26	7.26	7.26	7.26	7.25	7.25	7.25	7.25	7.25	7.26	7.25	7.25	7.24	7.23	7.22	7.21	7.19	7.18	7.13	7.12	7.14	7.16	7.22	7.23	7.19	7.22	7.30	7.31	7.30	7.32	7.31	7.34	7.40	7.40	7.38	7.35	7.33	7.32	7.30	7.28	7.24	7.21	7.22	7.22	7.19	7.16	7.17	7.13	7.02	6.92	7.09	7.36	7.35	7.31	7.30	7.30	7.30	7.29	7.32	7.35	7.35	7.36	7.37	7.35	7.33	7.25	7.12	7.11	7.17	7.09	7.10	7.19	7.20	7.22	7.21	7.22	7.28	7.43	7.46	7.25	7.20	7.28	7.18	7.27	7.36	7.17	7.08	7.18	7.21	7.17	7.13	7.16	7.08	7.05	7.17	7.16	7.10	6.99	7.02	7.36	7.60	7.43	7.09	7.47	8.07	7.71	7.15	6.61	6.66	7.01	7.05	7.12	7.15	7.16	7.19	7.25	7.27	7.24	7.21	7.26	7.25	7.19	7.23	7.35	7.48	7.37	7.22	7.22	
7.26	7.26	7.26	7.26	7.26	7.26	7.26	7.26	7.26	7.26	7.26	7.25	7.25	7.24	7.23	7.23	7.21	7.20	7.17	7.15	7.16	7.17	7.21	7.22	7.18	7.21	7.28	7.30	7.29	7.31	7.31	7.31	7.37	7.40	7.39	7.37	7.31	7.28	7.28	7.24	7.25	7.25	7.24	7.23	7.21	7.20	7.19	7.16	7.09	6.98	7.04	7.30	7.35	7.31	7.31	7.31	7.28	7.27	7.29	7.37	7.44	7.41	7.43	7.46	7.49	7.38	7.06	6.99	7.16	7.08	7.12	7.20	7.20	7.25	7.27	7.21	7.20	7.55	7.63	7.27	7.23	7.46	7.25	7.13	7.26	7.27	7.33	7.32	7.27	7.17	7.07	7.19	7.21	7.15	7.17	7.11	7.06	7.05	7.03	7.14	7.35	7.42	7.33	7.57	7.88	7.85	7.49	6.75	6.65	7.05	7.10	7.09	7.13	7.14	7.17	7.23	7.25	7.24	7.20	7.25	7.26	7.13	7.01	7.21	7.65	7.56	7.27	7.27	
7.27	7.27	7.27	7.27	7.27	7.27	7.27	7.27	7.26	7.26	7.26	7.26	7.26	7.25	7.24	7.24	7.23	7.22	7.20	7.17	7.17	7.19	7.22	7.22	7.18	7.20	7.27	7.29	7.29	7.29	7.31	7.30	7.31	7.36	7.40	7.37	7.28	7.28	7.28	7.22	7.26	7.28	7.25	7.24	7.24	7.20	7.19	7.18	7.14	7.03	7.03	7.26	7.33	7.29	7.33	7.37	7.25	7.22	7.28	7.35	7.53	7.43	7.36	7.56	7.74	7.72	7.27	6.90	7.08	7.15	7.15	7.18	7.30	7.36	7.32	7.22	7.12	7.54	7.68	7.42	7.46	7.66	7.52	7.20	7.08	7.20	7.49	7.61	7.47	7.26	7.17	7.22	7.34	7.55	7.39	7.05	7.06	7.10	7.09	7.04	7.07	7.25	7.64	7.75	7.55	7.72	7.58	7.06	6.87	7.11	7.21	7.12	7.11	7.12	7.17	7.23	7.20	7.21	7.18	7.19	7.40	7.29	6.79	6.80	7.41	7.70	7.68	7.68	
7.27	7.27	7.27	7.27	7.27	7.27	7.27	7.27	7.27	7.27	7.27	7.26	7.26	7.26	7.25	7.25	7.24	7.23	7.22	7.19	7.18	7.20	7.22	7.23	7.18	7.20	7.26	7.27	7.30	7.28	7.30	7.32	7.27	7.32	7.39	7.34	7.26	7.30	7.28	7.21	7.27	7.29	7.25	7.26	7.26	7.21	7.19	7.19	7.15	7.05	7.05	7.24	7.27	7.23	7.32	7.43	7.31	7.23	7.29	7.28	7.48	7.43	7.20	7.39	7.68	7.85	7.53	7.04	7.05	7.18	7.09	7.10	7.42	7.46	7.28	7.23	7.16	7.28	7.38	7.36	7.53	7.60	7.68	7.56	7.14	7.11	7.33	7.65	7.63	7.31	7.28	7.25	7.30	7.69	7.60	7.16	7.16	7.22	7.11	6.98	6.86	7.01	7.71	7.86	7.37	7.42	7.43	7.15	7.05	7.18	7.29	7.22	7.14	7.14	7.16	7.24	7.18	7.13	7.07	6.95	7.44	7.67	6.82	6.61	7.10	7.43	7.70	7.70	
7.27	7.27	7.27	7.27	7.27	7.27	7.27	7.27	7.27	7.27	7.27	7.27	7.27	7.26	7.26	7.25	7.25	7.24	7.23	7.21	7.19	7.22	7.25	7.23	7.18	7.22	7.25	7.26	7.29	7.27	7.29	7.32	7.28	7.30	7.35	7.30	7.27	7.31	7.28	7.22	7.26	7.28	7.25	7.26	7.27	7.22	7.20	7.20	7.15	7.06	7.09	7.22	7.21	7.18	7.21	7.33	7.38	7.39	7.33	7.14	7.31	7.39	7.20	7.26	7.48	7.63	7.46	7.18	7.11	7.16	7.03	7.03	7.42	7.43	7.26	7.27	7.23	7.11	7.11	7.21	7.35	7.28	7.37	7.61	7.31	7.10	7.17	7.39	7.45	7.30	7.24	7.27	7.38	7.54	7.51	7.25	7.27	7.49	7.26	6.82	6.80	7.09	7.57	7.64	7.37	7.29	7.30	7.14	7.05	7.16	7.26	7.28	7.26	7.31	7.23	7.24	7.33	7.18	6.95	6.69	7.17	7.83	6.99	6.68	7.28	7.26	7.19	7.19	
7.27	7.27	7.27	7.27	7.27	7.27	7.27	7.27	7.27	7.27	7.27	7.27	7.27	7.27	7.26	7.26	7.25	7.25	7.24	7.22	7.20	7.22	7.27	7.25	7.20	7.23	7.25	7.26	7.29	7.26	7.27	7.30	7.29	7.30	7.30	7.28	7.29	7.30	7.29	7.26	7.27	7.28	7.26	7.25	7.26	7.22	7.21	7.21	7.16	7.09	7.12	7.19	7.20	7.16	7.07	7.11	7.30	7.54	7.38	7.07	7.19	7.31	7.26	7.29	7.42	7.44	7.32	7.21	7.11	7.10	7.09	7.11	7.29	7.28	7.25	7.31	7.23	7.12	7.11	7.16	7.19	7.13	7.13	7.30	7.29	7.12	7.18	7.28	7.19	7.28	7.25	7.24	7.41	7.44	7.25	7.09	7.32	7.67	7.52	6.92	6.99	7.33	7.44	7.36	7.22	7.31	7.39	7.21	7.08	7.09	7.09	7.20	7.30	7.42	7.44	7.38	7.55	7.37	6.84	6.58	6.96	7.65	7.16	6.72	7.47	7.43	6.88	6.88	
7.27	7.28	7.28	7.27	7.27	7.27	7.27	7.27	7.27	7.27	7.27	7.27	7.27	7.27	7.27	7.26	7.26	7.25	7.25	7.23	7.21	7.22	7.26	7.26	7.22	7.25	7.25	7.26	7.33	7.29	7.26	7.26	7.28	7.31	7.27	7.26	7.29	7.30	7.29	7.28	7.27	7.28	7.27	7.25	7.24	7.22	7.21	7.20	7.16	7.12	7.13	7.22	7.32	7.22	7.02	7.01	7.23	7.47	7.34	7.15	7.19	7.26	7.27	7.31	7.37	7.33	7.28	7.23	7.08	7.03	7.22	7.27	7.23	7.22	7.22	7.26	7.23	7.24	7.21	7.15	7.11	7.19	7.23	7.20	7.16	7.07	7.09	7.21	7.07	7.17	7.41	7.38	7.32	7.40	7.21	6.98	7.36	7.58	7.45	7.25	7.47	7.41	7.28	7.30	7.04	7.18	7.51	7.44	7.21	7.07	7.01	7.14	7.21	7.14	7.45	7.70	7.84	7.60	6.75	6.47	6.90	7.36	7.23	6.83	7.35	7.47	6.90	6.90	
7.28	7.28	7.28	7.28	7.28	7.28	7.28	7.28	7.27	7.27	7.27	7.27	7.27	7.27	7.27	7.27	7.26	7.26	7.25	7.24	7.22	7.22	7.27	7.27	7.23	7.25	7.23	7.24	7.35	7.35	7.29	7.27	7.28	7.30	7.28	7.27	7.28	7.29	7.29	7.28	7.28	7.29	7.28	7.25	7.23	7.22	7.21	7.19	7.15	7.13	7.05	7.22	7.56	7.40	7.10	7.14	7.31	7.29	7.24	7.25	7.24	7.25	7.26	7.31	7.32	7.29	7.25	7.22	7.10	7.08	7.31	7.30	7.23	7.27	7.25	7.19	7.27	7.41	7.23	7.10	7.12	7.12	7.24	7.41	7.18	6.87	6.87	7.24	7.13	6.96	7.43	7.47	7.26	7.31	7.33	7.26	7.48	7.53	7.22	7.31	7.94	7.59	7.09	7.19	7.00	6.97	7.32	7.68	7.36	6.96	7.02	7.35	7.19	6.81	7.29	7.93	8.14	7.75	6.89	6.40	6.85	7.12	7.09	7.09	7.27	7.39	7.13	7.13	
7.28	7.28	7.28	7.28	7.28	7.28	7.28	7.28	7.28	7.28	7.27	7.27	7.27	7.27	7.27	7.27	7.26	7.26	7.25	7.25	7.22	7.22	7.28	7.28	7.26	7.25	7.23	7.22	7.29	7.33	7.31	7.29	7.29	7.29	7.28	7.28	7.29	7.29	7.28	7.28	7.29	7.30	7.29	7.26	7.24	7.23	7.21	7.20	7.17	7.11	6.94	7.08	7.57	7.55	7.24	7.28	7.40	7.23	7.20	7.29	7.26	7.26	7.27	7.30	7.29	7.28	7.25	7.20	7.14	7.19	7.39	7.27	7.21	7.29	7.36	7.28	7.42	7.63	7.22	7.06	7.12	6.97	6.96	7.64	7.42	6.65	6.60	7.23	7.35	6.92	7.36	7.32	7.09	7.09	7.18	7.41	7.56	7.63	7.25	7.22	8.00	8.02	7.29	7.04	7.04	6.95	7.05	7.64	7.48	6.88	6.95	7.53	7.20	6.52	7.17	8.05	8.33	7.81	7.16	6.49	6.76	7.08	6.95	7.11	7.18	7.41	7.47	7.47	
7.28	7.28	7.28	7.28	7.28	7.28	7.28	7.28	7.28	7.28	7.27	7.27	7.27	7.27	7.27	7.27	7.27	7.26	7.26	7.25	7.23	7.22	7.26	7.28	7.29	7.27	7.25	7.25	7.26	7.28	7.30	7.29	7.29	7.29	7.28	7.28	7.30	7.29	7.28	7.28	7.29	7.30	7.30	7.28	7.25	7.24	7.21	7.21	7.18	7.12	6.97	7.01	7.33	7.44	7.32	7.29	7.35	7.27	7.24	7.29	7.28	7.27	7.29	7.29	7.26	7.27	7.25	7.18	7.16	7.19	7.36	7.28	7.11	7.20	7.48	7.44	7.67	7.82	7.42	7.28	7.07	6.88	6.74	7.46	7.59	6.95	6.67	7.07	7.42	7.07	7.40	7.35	7.02	6.97	7.03	7.23	7.39	7.63	7.44	7.29	7.72	8.16	7.84	7.26	7.20	7.24	7.16	7.55	7.41	6.87	7.00	7.49	7.20	6.19	6.81	7.96	8.35	8.09	7.50	6.82	6.69	7.17	7.14	6.78	6.88	7.47	7.76	7.76	
7.28	7.28	7.28	7.28	7.28	7.28	7.28	7.28	7.28	7.28	7.28	7.28	7.27	7.27	7.27	7.27	7.27	7.27	7.26	7.26	7.24	7.22	7.23	7.26	7.29	7.28	7.26	7.27	7.27	7.27	7.29	7.28	7.28	7.30	7.28	7.28	7.30	7.29	7.28	7.28	7.28	7.30	7.30	7.28	7.26	7.24	7.23	7.22	7.19	7.15	7.10	7.11	7.21	7.29	7.31	7.28	7.26	7.27	7.26	7.26	7.29	7.31	7.31	7.30	7.24	7.25	7.26	7.21	7.20	7.18	7.23	7.25	6.94	7.00	7.54	7.47	7.86	8.11	7.80	7.61	7.18	6.98	6.88	7.03	7.17	7.35	7.13	7.05	7.30	7.12	7.30	7.45	7.16	7.00	6.97	7.07	7.20	7.39	7.45	7.35	7.42	7.79	7.90	7.45	7.31	7.51	7.53	7.75	7.51	7.01	7.27	7.55	7.26	6.23	6.40	7.37	7.85	8.07	7.63	7.15	6.99	7.43	7.55	6.68	6.53	7.44	7.91	7.91	
7.28	7.28	7.28	7.28	7.28	7.28	7.28	7.28	7.28	7.28	7.28	7.28	7.27	7.27	7.27	7.27	7.27	7.27	7.26	7.26	7.25	7.24	7.21	7.24	7.29	7.29	7.26	7.26	7.27	7.27	7.27	7.27	7.29	7.30	7.28	7.28	7.30	7.29	7.27	7.29	7.28	7.28	7.29	7.29	7.27	7.25	7.24	7.23	7.21	7.19	7.18	7.19	7.22	7.24	7.29	7.27	7.23	7.26	7.26	7.22	7.26	7.33	7.32	7.32	7.26	7.23	7.25	7.26	7.24	7.21	7.16	7.23	6.81	6.64	7.30	7.31	7.59	8.25	8.33	7.73	7.25	7.10	6.97	6.70	6.66	7.33	7.37	7.11	7.11	7.11	7.13	7.25	7.21	7.08	6.96	6.96	7.12	7.21	7.29	7.32	7.32	7.50	7.60	7.36	7.17	7.29	7.46	7.68	7.67	7.44	7.72	7.90	7.53	6.80	6.63	6.96	7.32	7.66	7.39	6.90	6.99	7.47	7.71	7.07	6.50	7.25	7.88	7.88	
7.28	7.28	7.28	7.28	7.28	7.28	7.28	7.28	7.28	7.28	7.28	7.28	7.28	7.27	7.27	7.27	7.27	7.27	7.27	7.26	7.26	7.25	7.22	7.22	7.29	7.31	7.27	7.25	7.27	7.28	7.26	7.26	7.28	7.29	7.28	7.29	7.30	7.28	7.27	7.29	7.28	7.27	7.28	7.29	7.28	7.26	7.25	7.23	7.23	7.22	7.21	7.22	7.23	7.24	7.27	7.25	7.23	7.25	7.26	7.22	7.23	7.30	7.30	7.32	7.29	7.24	7.26	7.30	7.25	7.23	7.15	7.20	7.00	6.60	6.85	6.97	7.02	7.89	8.64	7.84	7.21	7.11	6.98	6.53	6.45	7.19	7.49	7.40	7.07	7.16	7.17	7.02	7.12	7.09	7.01	6.95	7.08	7.19	7.21	7.26	7.30	7.41	7.38	7.40	7.26	6.98	7.07	7.23	7.29	7.36	7.66	7.86	7.76	7.45	7.24	7.07	7.04	7.48	7.53	6.95	6.91	7.16	7.38	7.46	6.78	7.00	7.69	7.69	
7.28	7.28	7.28	7.28	7.28	7.28	7.28	7.28	7.28	7.28	7.28	7.28	7.28	7.28	7.27	7.27	7.27	7.27	7.27	7.26	7.26	7.25	7.23	7.21	7.27	7.32	7.28	7.25	7.27	7.28	7.27	7.27	7.27	7.28	7.29	7.30	7.30	7.28	7.27	7.29	7.28	7.27	7.28	7.29	7.28	7.27	7.26	7.24	7.24	7.24	7.22	7.23	7.23	7.24	7.26	7.25	7.23	7.24	7.25	7.25	7.24	7.27	7.27	7.29	7.29	7.27	7.27	7.31	7.23	7.26	7.23	7.14	7.19	6.97	6.85	6.86	6.77	7.50	8.62	8.01	7.14	7.01	7.13	6.83	6.45	6.64	7.24	7.64	7.34	7.37	7.30	7.07	7.07	7.07	7.01	6.98	7.09	7.16	7.18	7.16	7.32	7.43	7.22	7.48	7.58	7.07	6.95	7.18	7.26	7.32	7.48	7.52	7.58	7.63	7.53	7.17	6.81	7.15	7.64	7.46	7.26	7.07	7.00	7.54	7.22	6.99	7.45	7.45	
7.28	7.28	7.28	7.28	7.28	7.28	7.28	7.28	7.28	7.28	7.28	7.28	7.28	7.28	7.27	7.27	7.27	7.27	7.27	7.26	7.26	7.26	7.25	7.21	7.24	7.32	7.29	7.25	7.26	7.28	7.27	7.27	7.27	7.26	7.29	7.30	7.30	7.29	7.28	7.28	7.28	7.28	7.27	7.28	7.27	7.27	7.27	7.25	7.25	7.24	7.23	7.24	7.24	7.24	7.25	7.25	7.24	7.23	7.24	7.25	7.26	7.27	7.26	7.27	7.26	7.27	7.28	7.29	7.19	7.26	7.42	7.29	7.14	7.01	7.04	7.10	6.91	7.15	8.32	8.25	7.07	6.90	7.11	7.15	6.87	6.33	6.71	7.32	7.39	7.50	7.40	7.25	7.13	7.12	7.02	6.97	7.08	7.15	7.19	7.07	7.37	7.54	7.10	7.30	7.52	7.33	7.07	7.19	7.41	7.47	7.66	7.68	7.75	7.95	7.73	7.07	6.73	6.93	7.35	7.48	7.59	7.25	6.64	7.10	7.43	7.22	7.24	7.24	
7.28	7.28	7.28	7.28	7.28	7.28	7.28	7.28	7.28	7.28	7.28	7.28	7.28	7.28	7.28	7.27	7.27	7.27	7.27	7.27	7.26	7.26	7.25	7.22	7.22	7.31	7.32	7.25	7.25	7.29	7.28	7.27	7.28	7.26	7.29	7.30	7.29	7.29	7.29	7.28	7.29	7.29	7.27	7.28	7.27	7.26	7.27	7.26	7.25	7.25	7.24	7.25	7.25	7.25	7.25	7.24	7.23	7.23	7.24	7.25	7.25	7.26	7.26	7.27	7.26	7.29	7.28	7.19	7.06	7.15	7.71	8.00	7.47	6.65	6.53	7.17	7.32	6.77	7.60	8.28	7.39	7.12	7.14	7.17	7.23	6.73	6.64	6.98	7.19	7.35	7.44	7.35	7.17	7.14	7.06	7.00	7.00	7.08	7.16	7.04	7.50	7.77	7.18	6.95	7.08	7.25	7.04	7.01	7.09	7.08	7.33	7.42	7.76	8.29	8.31	7.24	6.56	7.13	7.49	7.16	7.73	7.79	6.49	6.38	7.36	7.45	7.05	7.05	
7.28	7.28	7.28	7.28	7.28	7.28	7.28	7.28	7.28	7.28	7.28	7.28	7.28	7.28	7.28	7.27	7.27	7.27	7.27	7.27	7.27	7.26	7.26	7.23	7.21	7.29	7.34	7.26	7.24	7.28	7.28	7.27	7.28	7.26	7.28	7.30	7.28	7.29	7.30	7.29	7.29	7.29	7.27	7.29	7.28	7.27	7.26	7.26	7.26	7.25	7.24	7.24	7.25	7.25	7.25	7.24	7.22	7.22	7.24	7.24	7.24	7.25	7.25	7.26	7.20	7.37	7.47	7.05	6.84	6.67	7.51	8.99	8.58	6.95	6.12	7.04	7.56	6.43	6.83	7.71	7.52	7.38	7.26	7.21	7.27	7.10	6.85	6.93	7.06	7.12	7.37	7.46	7.22	7.08	7.05	7.02	6.96	6.98	6.98	6.92	7.53	8.07	7.51	6.73	6.86	7.27	7.09	7.02	6.95	6.90	6.96	6.88	7.14	7.70	8.50	7.89	6.62	7.16	7.89	7.09	7.48	8.31	6.87	5.97	7.17	7.66	7.22	7.22	
7.28	7.28	7.28	7.28	7.28	7.28	7.28	7.28	7.28	7.28	7.28	7.28	7.28	7.28	7.28	7.28	7.27	7.27	7.27	7.27	7.27	7.26	7.26	7.24	7.21	7.25	7.35	7.28	7.23	7.27	7.27	7.28	7.28	7.27	7.27	7.29	7.28	7.28	7.30	7.29	7.29	7.28	7.28	7.28	7.28	7.28	7.27	7.26	7.27	7.26	7.25	7.25	7.25	7.25	7.25	7.24	7.21	7.21	7.23	7.24	7.23	7.24	7.23	7.24	7.11	7.30	7.71	7.14	6.78	5.95	6.10	8.61	9.29	8.33	7.06	7.38	7.62	6.47	6.60	7.17	7.32	7.32	7.24	7.26	7.27	7.17	7.04	6.97	7.00	6.97	7.13	7.46	7.32	7.06	7.03	6.98	6.96	6.97	6.92	6.81	7.30	8.17	7.75	6.76	6.86	7.46	7.47	7.12	6.81	6.90	7.02	6.73	6.77	7.04	7.78	7.97	6.98	7.14	7.99	7.34	7.23	8.21	7.19	5.95	6.92	7.70	7.56	7.56	
7.28	7.28	7.28	7.28	7.28	7.28	7.28	7.28	7.28	7.28	7.28	7.28	7.28	7.28	7.28	7.28	7.27	7.27	7.27	7.27	7.27	7.27	7.26	7.25	7.21	7.23	7.34	7.31	7.24	7.26	7.27	7.28	7.28	7.28	7.27	7.28	7.28	7.28	7.29	7.30	7.29	7.29	7.29	7.27	7.28	7.28	7.26	7.26	7.27	7.26	7.25	7.25	7.24	7.24	7.26	7.24	7.21	7.20	7.21	7.22	7.22	7.23	7.25	7.19	7.10	7.15	7.61	7.50	6.99	5.82	5.39	7.24	8.43	8.52	7.98	7.95	7.73	6.87	6.77	7.05	7.23	7.24	7.22	7.25	7.29	7.19	7.11	7.07	7.04	6.94	6.95	7.25	7.26	7.06	7.00	6.93	6.90	6.88	6.95	6.90	7.25	8.16	7.70	6.86	6.93	7.34	7.93	7.61	6.68	6.70	7.20	6.91	6.67	6.88	7.20	7.55	7.13	7.23	8.06	7.63	7.23	7.90	7.19	6.05	6.76	7.60	7.68	7.68	
7.28	7.28	7.28	7.28	7.28	7.28	7.28	7.28	7.28	7.28	7.28	7.28	7.28	7.28	7.28	7.28	7.27	7.27	7.27	7.27	7.27	7.27	7.26	7.26	7.23	7.21	7.30	7.32	7.26	7.25	7.27	7.28	7.28	7.30	7.28	7.27	7.28	7.28	7.28	7.30	7.29	7.29	7.29	7.27	7.29	7.28	7.26	7.26	7.28	7.27	7.25	7.26	7.24	7.23	7.26	7.24	7.20	7.20	7.18	7.20	7.18	7.17	7.31	7.26	7.20	7.16	7.38	7.80	7.49	6.30	5.95	7.11	7.64	7.74	7.84	7.98	7.80	7.10	6.95	7.14	7.22	7.27	7.31	7.25	7.28	7.27	7.14	7.13	7.09	7.00	6.98	7.00	7.10	7.10	6.94	6.91	6.87	6.73	6.74	6.79	7.32	8.18	7.72	6.93	7.03	7.07	7.93	8.25	6.87	6.47	7.22	7.27	6.69	6.62	6.95	7.33	7.15	7.00	8.21	8.15	7.10	7.73	7.30	6.05	6.57	7.42	7.60	7.60	
7.28	7.28	7.28	7.28	7.28	7.28	7.28	7.28	7.28	7.28	7.28	7.28	7.28	7.28	7.28	7.28	7.28	7.27	7.27	7.27	7.27	7.27	7.26	7.26	7.25	7.22	7.26	7.32	7.28	7.25	7.26	7.27	7.28	7.30	7.29	7.26	7.28	7.28	7.28	7.29	7.29	7.30	7.29	7.27	7.29	7.29	7.26	7.26	7.27	7.28	7.26	7.26	7.25	7.23	7.24	7.23	7.21	7.20	7.17	7.18	7.12	7.02	7.17	7.34	7.36	7.29	7.28	7.69	7.93	7.15	6.66	7.22	7.36	7.40	7.50	7.59	7.68	7.21	7.07	7.23	7.23	7.32	7.42	7.31	7.32	7.34	7.18	7.18	7.11	7.04	7.00	6.89	6.99	7.12	6.92	6.91	6.95	6.74	6.50	6.44	7.09	7.91	7.87	7.27	7.03	7.02	7.81	8.42	7.12	6.44	7.25	7.58	6.81	6.29	6.61	7.25	7.23	6.64	7.88	8.61	7.15	7.63	7.88	6.23	6.25	7.20	7.46	7.46	
7.28	7.28	7.28	7.28	7.28	7.28	7.28	7.28	7.28	7.28	7.28	7.28	7.28	7.28	7.28	7.28	7.28	7.27	7.27	7.27	7.27	7.27	7.27	7.26	7.26	7.23	7.24	7.29	7.28	7.27	7.26	7.26	7.29	7.30	7.29	7.26	7.28	7.29	7.27	7.28	7.29	7.30	7.29	7.27	7.29	7.29	7.27	7.26	7.26	7.29	7.28	7.26	7.25	7.24	7.23	7.22	7.21	7.18	7.21	7.22	7.01	6.88	6.96	7.04	7.44	7.67	7.29	7.38	7.82	7.87	7.66	7.41	7.32	7.50	7.39	7.29	7.30	7.11	7.22	7.30	7.23	7.40	7.55	7.46	7.48	7.42	7.19	7.30	7.29	6.94	6.81	6.97	7.10	7.09	6.88	6.85	7.12	6.93	6.49	6.33	6.74	7.24	7.61	7.74	7.05	6.99	7.96	8.35	7.13	6.60	7.47	7.74	7.07	6.26	6.33	7.10	7.33	6.68	7.34	8.52	7.41	7.31	8.42	7.02	6.00	6.93	7.50	7.50	
7.28	7.28	7.28	7.28	7.28	7.28	7.28	7.28	7.28	7.28	7.28	7.28	7.28	7.28	7.28	7.28	7.28	7.28	7.27	7.27	7.27	7.27	7.27	7.26	7.26	7.25	7.24	7.26	7.27	7.29	7.26	7.25	7.29	7.31	7.28	7.25	7.28	7.29	7.27	7.27	7.29	7.29	7.30	7.28	7.28	7.29	7.28	7.26	7.25	7.28	7.29	7.27	7.25	7.23	7.23	7.21	7.20	7.09	7.24	7.42	6.91	6.74	6.89	6.58	7.21	7.98	7.37	7.08	7.25	7.65	8.10	7.88	7.55	7.71	7.62	7.36	7.13	6.83	7.21	7.40	7.22	7.37	7.68	7.68	7.61	7.61	7.31	7.50	7.74	7.05	6.66	7.10	7.38	7.28	6.94	6.71	7.19	7.17	6.72	6.48	6.58	6.71	7.02	7.76	7.29	6.98	7.97	8.27	6.97	6.82	7.74	7.66	7.24	6.51	6.30	6.93	7.44	6.95	6.98	8.06	7.54	7.02	8.33	7.79	6.17	6.73	7.52	7.52	
7.28	7.28	7.28	7.28	7.28	7.28	7.28	7.28	7.28	7.28	7.28	7.28	7.28	7.28	7.28	7.28	7.28	7.28	7.28	7.27	7.27	7.27	7.27	7.27	7.26	7.26	7.26	7.24	7.25	7.30	7.28	7.24	7.28	7.32	7.28	7.25	7.28	7.29	7.27	7.27	7.29	7.29	7.29	7.28	7.28	7.29	7.29	7.26	7.25	7.27	7.29	7.27	7.25	7.23	7.24	7.21	7.21	7.01	7.13	7.52	7.00	6.71	6.71	6.39	7.08	7.98	7.47	7.03	7.15	7.21	7.39	7.86	7.74	7.71	7.76	7.54	7.33	6.86	7.04	7.38	7.26	7.22	7.59	7.66	7.38	7.47	7.38	7.45	7.86	7.58	7.05	7.10	7.33	7.59	7.33	6.83	7.12	7.28	7.07	6.72	6.60	6.60	6.71	7.36	7.41	7.15	7.82	8.05	6.88	6.92	7.85	7.73	7.35	6.68	6.41	6.90	7.52	7.22	6.85	7.53	7.60	7.29	8.03	7.75	6.43	6.73	7.42	7.42	
7.28	7.28	7.28	7.28	7.28	7.28	7.28	7.28	7.28	7.28	7.28	7.28	7.28	7.28	7.28	7.28	7.28	7.28	7.28	7.27	7.27	7.27	7.27	7.27	7.27	7.26	7.26	7.24	7.23	7.28	7.30	7.25	7.28	7.31	7.28	7.27	7.27	7.28	7.28	7.27	7.28	7.29	7.29	7.28	7.27	7.28	7.29	7.27	7.25	7.26	7.27	7.27	7.25	7.23	7.23	7.21	7.19	7.05	7.05	7.33	7.13	6.88	6.45	6.33	7.29	7.80	7.48	7.25	7.53	7.34	6.91	7.42	7.71	7.60	7.61	7.48	7.34	7.08	7.03	7.33	7.37	7.35	7.65	7.39	6.97	7.09	7.14	7.14	7.25	7.53	7.60	7.08	7.04	7.49	7.50	7.24	7.10	7.28	7.24	6.89	6.73	6.69	6.73	7.02	7.28	7.27	7.67	7.77	7.01	6.97	7.50	7.72	7.56	6.83	6.50	6.96	7.50	7.37	6.98	7.08	7.47	7.74	7.98	7.62	6.49	6.60	7.24	7.24	
7.28	7.28	7.28	7.28	7.28	7.28	7.28	7.28	7.28	7.28	7.28	7.28	7.28	7.28	7.28	7.28	7.28	7.28	7.28	7.28	7.27	7.27	7.27	7.27	7.27	7.27	7.26	7.26	7.23	7.25	7.29	7.26	7.28	7.31	7.28	7.27	7.27	7.27	7.28	7.27	7.27	7.29	7.29	7.28	7.28	7.27	7.29	7.28	7.26	7.27	7.27	7.27	7.25	7.23	7.23	7.22	7.18	7.14	7.10	7.14	7.25	7.14	6.51	6.44	7.24	7.44	7.41	7.33	7.53	7.63	7.10	7.09	7.51	7.68	7.67	7.60	7.34	7.12	7.22	7.56	7.44	7.62	7.92	7.24	6.83	6.96	6.98	6.94	6.77	7.10	7.70	7.11	7.06	7.42	7.30	7.35	7.11	7.35	7.28	6.88	6.88	6.80	6.83	6.97	7.19	7.27	7.49	7.55	7.23	7.13	7.22	7.41	7.48	7.00	6.64	6.98	7.37	7.35	7.21	6.94	7.28	7.81	7.85	7.86	6.94	6.48	6.86	6.86	
7.28	7.28	7.28	7.28	7.28	7.28	7.28	7.28	7.28	7.28	7.28	7.28	7.28	7.28	7.28	7.28	7.28	7.28	7.28	7.28	7.28	7.27	7.27	7.27	7.27	7.27	7.27	7.26	7.25	7.25	7.26	7.26	7.26	7.31	7.30	7.28	7.28	7.27	7.29	7.27	7.27	7.29	7.29	7.28	7.27	7.27	7.28	7.27	7.26	7.27	7.27	7.27	7.25	7.23	7.23	7.22	7.20	7.16	7.10	7.04	7.26	7.26	6.83	6.93	7.25	7.24	7.38	7.16	7.29	7.75	7.22	6.67	7.12	7.49	7.55	7.81	7.65	7.25	7.42	7.94	7.69	7.80	7.96	7.26	6.93	6.92	6.87	6.80	6.67	6.85	7.30	6.97	7.04	7.49	7.38	7.34	7.06	7.29	7.37	6.92	6.88	6.87	6.89	7.00	7.18	7.28	7.41	7.46	7.31	7.20	7.24	7.26	7.20	7.04	6.83	6.96	7.21	7.22	7.22	7.10	7.32	7.59	7.36	7.82	7.60	6.82	6.82	6.82	
7.28	7.28	7.28	7.28	7.28	7.28	7.28	7.28	7.28	7.28	7.28	7.28	7.28	7.28	7.28	7.28	7.28	7.28	7.28	7.28	7.28	7.28	7.27	7.27	7.27	7.27	7.27	7.27	7.26	7.26	7.25	7.25	7.24	7.27	7.29	7.30	7.30	7.27	7.28	7.27	7.26	7.29	7.29	7.28	7.27	7.28	7.28	7.26	7.26	7.26	7.26	7.27	7.24	7.22	7.24	7.23	7.23	7.15	7.05	6.99	7.08	7.09	6.86	7.15	7.53	7.43	7.14	6.82	7.32	7.94	7.23	6.39	6.82	7.17	7.04	7.44	7.64	7.65	7.61	7.85	7.92	7.93	8.02	7.39	7.00	6.90	6.66	6.61	6.77	6.76	6.78	6.71	6.87	7.26	7.47	7.56	7.20	7.08	7.29	7.05	6.81	6.84	6.91	6.99	7.12	7.28	7.46	7.46	7.35	7.31	7.27	7.18	7.00	6.79	6.86	7.03	7.12	7.02	7.04	7.23	7.38	7.45	6.97	7.34	7.54	7.22	7.46	7.46	
7.28	7.28	7.28	7.28	7.28	7.28	7.28	7.28	7.28	7.28	7.28	7.28	7.28	7.28	7.28	7.28	7.28	7.28	7.28	7.28	7.28	7.28	7.27	7.27	7.27	7.27	7.27	7.27	7.27	7.27	7.26	7.26	7.25	7.26	7.26	7.27	7.30	7.28	7.29	7.28	7.26	7.28	7.29	7.28	7.27	7.28	7.28	7.26	7.25	7.25	7.26	7.26	7.24	7.21	7.24	7.28	7.29	7.18	7.06	7.03	7.00	7.02	6.83	7.00	7.66	7.70	6.83	6.38	7.37	7.96	7.31	6.60	6.76	7.10	7.02	6.85	7.17	8.27	8.04	7.59	7.73	7.76	8.29	7.86	6.99	6.93	6.61	6.35	6.86	6.78	6.47	6.55	6.78	6.98	7.21	7.70	7.59	7.06	7.23	7.16	6.83	6.85	6.82	6.89	7.02	7.26	7.60	7.56	7.43	7.66	7.55	7.33	7.13	6.43	6.54	7.22	7.31	7.03	6.98	7.11	7.18	7.38	6.98	7.02	6.98	7.24	8.07	8.07	
7.28	7.28	7.28	7.28	7.28	7.28	7.28	7.28	7.28	7.28	7.28	7.28	7.28	7.28	7.28	7.28	7.28	7.28	7.28	7.28	7.28	7.28	7.28	7.28	7.27	7.27	7.27	7.27	7.27	7.27	7.27	7.27	7.27	7.27	7.25	7.26	7.28	7.27	7.29	7.29	7.27	7.27	7.28	7.28	7.27	7.28	7.27	7.26	7.25	7.23	7.23	7.25	7.22	7.20	7.16	7.35	7.53	7.23	7.12	7.08	6.97	7.21	7.23	7.09	7.29	7.62	6.89	6.35	7.26	7.48	7.08	6.88	6.87	7.07	7.42	6.75	6.96	9.00	8.72	7.89	7.61	7.27	8.31	8.50	7.21	7.02	6.95	6.48	6.79	6.73	6.43	6.54	6.84	6.90	6.89	7.64	7.84	7.20	7.28	7.20	6.99	7.03	6.74	6.68	6.86	7.05	7.27	7.52	7.55	7.83	7.99	7.83	7.68	6.61	6.16	7.10	7.64	7.59	7.42	6.99	6.78	7.21	7.14	6.89	6.65	7.25	8.27	8.27	
7.28	7.28	7.28	7.28	7.28	7.28	7.28	7.28	7.28	7.28	7.28	7.28	7.28	7.28	7.28	7.28	7.28	7.28	7.28	7.28	7.28	7.28	7.28	7.28	7.28	7.27	7.27	7.27	7.27	7.27	7.27	7.27	7.27	7.27	7.27	7.27	7.26	7.26	7.28	7.29	7.29	7.28	7.27	7.28	7.27	7.27	7.26	7.25	7.25	7.22	7.20	7.23	7.19	7.17	7.02	7.20	7.90	7.60	7.19	7.20	6.83	7.30	7.98	7.34	6.68	7.00	6.89	6.84	7.28	7.00	6.75	6.86	6.72	6.79	7.49	6.87	6.88	9.35	9.75	8.55	7.86	7.25	7.93	8.40	7.74	7.24	7.29	7.24	6.79	6.39	6.45	6.48	6.84	6.89	6.76	7.48	7.80	7.44	7.27	7.07	7.02	7.15	6.90	6.69	6.81	7.00	6.63	6.69	7.29	7.56	7.88	7.99	7.96	7.23	6.29	6.55	7.40	8.04	8.09	7.21	6.59	7.04	7.13	6.74	6.59	7.39	8.30	8.30	
7.28	7.28	7.28	7.28	7.28	7.28	7.28	7.28	7.28	7.28	7.28	7.28	7.28	7.28	7.28	7.28	7.28	7.28	7.28	7.28	7.28	7.28	7.28	7.28	7.28	7.28	7.27	7.27	7.27	7.27	7.27	7.27	7.27	7.27	7.27	7.27	7.26	7.26	7.26	7.26	7.29	7.30	7.28	7.27	7.27	7.28	7.26	7.22	7.24	7.23	7.19	7.20	7.17	7.10	6.92	6.84	7.79	8.14	7.56	7.50	6.86	7.27	8.41	7.55	6.51	6.29	6.61	7.16	7.17	6.85	6.91	7.00	6.30	6.09	6.66	6.30	6.05	8.42	10.15	8.94	7.94	7.89	7.96	7.46	7.42	7.53	7.41	7.94	7.36	6.32	6.56	6.63	6.61	6.88	6.96	7.27	7.49	7.82	7.58	6.96	6.85	6.93	6.98	6.94	6.91	7.27	6.83	6.14	6.71	7.26	7.56	7.83	7.80	7.45	6.72	6.28	6.94	8.01	8.32	7.33	6.62	7.09	6.99	6.58	6.63	7.42	8.23	8.23	
7.28	7.28	7.28	7.28	7.28	7.28	7.28	7.28	7.28	7.28	7.28	7.28	7.28	7.28	7.28	7.28	7.28	7.28	7.28	7.28	7.28	7.28	7.28	7.28	7.28	7.28	7.28	7.28	7.27	7.27	7.27	7.27	7.27	7.27	7.27	7.27	7.27	7.27	7.26	7.25	7.26	7.29	7.29	7.27	7.26	7.28	7.27	7.21	7.20	7.21	7.18	7.15	7.11	7.02	6.84	6.68	7.35	8.12	8.06	7.90	7.39	7.59	8.30	7.79	6.84	5.98	6.29	7.09	6.80	6.73	7.24	7.45	6.70	6.07	5.76	5.69	5.73	7.41	9.76	8.85	7.76	8.26	8.72	7.34	6.57	7.25	7.25	7.71	7.97	6.89	6.67	6.93	6.47	6.83	7.38	7.28	7.09	7.87	8.09	7.12	6.77	6.76	6.83	6.95	6.96	7.28	7.27	6.53	6.42	6.81	7.16	7.75	7.74	7.35	6.85	6.42	7.03	7.96	8.26	7.49	6.56	6.96	6.95	6.57	6.81	7.43	7.98	7.98	
7.28	7.28	7.28	7.28	7.28	7.28	7.28	7.28	7.28	7.28	7.28	7.28	7.28	7.28	7.28	7.28	7.28	7.28	7.28	7.28	7.28	7.28	7.28	7.28	7.28	7.28	7.28	7.28	7.28	7.28	7.27	7.27	7.27	7.27	7.27	7.27	7.27	7.27	7.27	7.26	7.26	7.26	7.27	7.28	7.26	7.27	7.27	7.23	7.19	7.19	7.16	7.12	7.00	6.94	6.63	6.71	7.37	7.87	8.05	7.91	7.95	7.93	8.09	8.08	7.44	6.28	6.07	6.63	6.58	6.75	7.29	7.46	7.42	6.87	5.70	5.52	6.07	7.83	9.18	8.52	7.56	7.74	9.06	8.61	7.21	7.11	6.94	7.08	7.66	7.17	6.70	6.92	6.35	6.37	7.38	7.58	7.19	7.92	8.27	7.36	6.78	6.65	6.67	6.79	7.06	7.12	7.23	7.05	6.56	6.42	6.64	7.45	7.84	7.34	6.48	6.43	7.40	7.71	8.01	8.09	6.78	6.45	6.81	6.67	7.03	7.57	7.80	7.80	
7.28	7.28	7.28	7.28	7.28	7.28	7.28	7.28	7.28	7.28	7.28	7.28	7.28	7.28	7.28	7.28	7.28	7.28	7.28	7.28	7.28	7.28	7.28	7.28	7.28	7.28	7.28	7.28	7.28	7.28	7.28	7.28	7.27	7.28	7.27	7.27	7.27	7.27	7.27	7.27	7.27	7.26	7.26	7.28	7.26	7.27	7.26	7.22	7.19	7.18	7.14	7.08	6.91	6.80	6.31	6.46	7.57	8.16	7.82	7.49	7.98	8.03	7.76	8.05	8.03	6.86	6.16	6.21	6.59	6.95	6.94	7.00	7.19	7.41	6.73	6.28	7.02	7.99	8.40	8.36	7.56	6.96	8.23	8.95	8.46	7.99	7.25	7.20	7.46	7.32	7.21	7.04	6.37	5.86	6.67	7.40	7.46	8.31	8.58	7.68	6.84	6.42	6.24	6.72	7.51	7.21	7.07	7.11	6.83	6.75	6.52	6.71	7.51	7.56	6.17	6.29	7.58	7.27	7.66	8.53	7.24	6.17	6.44	6.75	7.15	7.52	7.71	7.71	
7.28	7.28	7.28	7.28	7.28	7.28	7.28	7.28	7.28	7.28	7.28	7.28	7.28	7.28	7.28	7.28	7.28	7.28	7.28	7.28	7.28	7.28	7.28	7.28	7.28	7.28	7.28	7.28	7.28	7.28	7.28	7.28	7.28	7.28	7.27	7.27	7.27	7.27	7.27	7.27	7.27	7.26	7.26	7.26	7.25	7.26	7.26	7.22	7.19	7.17	7.12	7.03	6.88	6.61	6.08	6.11	7.43	8.64	8.01	7.33	7.74	7.96	7.50	7.78	8.13	6.80	6.19	6.38	6.97	7.10	6.55	6.57	6.44	6.59	6.80	7.15	8.06	7.94	7.71	8.05	7.77	6.81	7.16	8.40	8.60	8.34	7.86	7.91	7.81	7.97	8.46	7.77	6.78	6.18	6.22	6.71	7.23	8.29	9.05	8.48	7.45	6.59	5.75	6.40	7.95	7.53	6.90	6.60	6.80	7.56	7.14	6.30	6.64	7.38	6.23	6.24	7.44	6.78	7.29	8.57	7.70	6.40	6.25	6.89	7.27	7.40	7.63	7.63	
7.28	7.28	7.28	7.28	7.28	7.28	7.28	7.28	7.28	7.28	7.28	7.28	7.28	7.28	7.28	7.28	7.28	7.28	7.28	7.28	7.28	7.28	7.28	7.28	7.28	7.28	7.28	7.28	7.28	7.28	7.28	7.28	7.28	7.28	7.28	7.28	7.27	7.27	7.27	7.27	7.27	7.27	7.26	7.26	7.25	7.25	7.25	7.23	7.21	7.16	7.11	7.00	6.88	6.50	5.94	5.99	6.97	8.50	8.73	7.78	7.46	7.58	7.67	8.16	7.99	6.29	5.57	6.56	7.39	7.18	6.70	6.48	6.32	6.04	6.05	6.86	8.22	8.22	7.45	7.54	7.87	7.00	6.22	7.52	8.48	7.95	7.45	7.97	7.73	7.66	9.08	9.07	7.79	7.11	6.65	6.26	6.64	7.88	8.89	8.87	8.42	7.38	6.07	6.46	8.05	7.99	6.76	6.10	6.48	7.77	7.94	6.84	6.37	6.86	6.25	6.15	7.20	6.57	6.80	8.02	7.80	6.78	6.37	7.01	7.25	7.33	7.61	7.61	
7.28	7.28	7.28	7.28	7.28	7.28	7.28	7.28	7.28	7.28	7.28	7.28	7.28	7.28	7.28	7.28	7.28	7.28	7.28	7.28	7.28	7.28	7.28	7.28	7.28	7.28	7.28	7.28	7.28	7.28	7.28	7.28	7.28	7.28	7.28	7.28	7.28	7.28	7.27	7.27	7.27	7.27	7.27	7.26	7.25	7.25	7.24	7.23	7.21	7.17	7.11	7.03	6.89	6.58	6.05	6.01	6.28	7.25	9.03	8.75	7.34	6.84	7.61	8.84	8.48	6.61	5.31	6.21	7.22	7.19	7.11	6.75	6.61	6.54	6.33	6.35	7.44	8.32	7.04	7.11	7.98	7.31	5.90	6.06	7.94	7.38	6.50	7.34	7.22	6.57	7.91	9.19	8.56	7.80	7.45	6.43	5.93	7.39	8.51	8.45	8.64	7.96	6.81	7.04	8.06	8.38	7.06	6.35	6.65	7.39	7.96	7.59	6.90	6.67	6.29	5.94	6.84	6.90	6.66	7.27	7.39	6.72	6.51	7.09	7.15	7.28	7.63	7.63	
7.28	7.28	7.28	7.28	7.28	7.28	7.28	7.28	7.28	7.28	7.28	7.28	7.28	7.28	7.28	7.28	7.28	7.28	7.28	7.28	7.28	7.28	7.28	7.28	7.28	7.28	7.28	7.28	7.28	7.28	7.28	7.28	7.28	7.28	7.28	7.28	7.28	7.28	7.27	7.27	7.27	7.27	7.27	7.27	7.26	7.26	7.24	7.24	7.21	7.18	7.13	7.07	6.94	6.77	6.46	6.30	5.86	5.90	8.15	9.19	7.85	6.69	6.75	8.30	9.31	7.84	5.97	5.81	6.88	7.41	7.34	7.17	6.83	7.01	6.84	6.37	7.21	7.99	6.39	6.71	8.27	8.06	6.33	5.29	7.25	6.92	6.12	6.94	7.13	6.50	6.87	8.39	8.30	7.76	7.82	6.95	5.80	6.71	8.09	8.13	8.24	8.02	7.28	7.19	7.98	8.44	7.65	7.09	7.22	7.39	7.67	7.78	7.33	6.92	6.49	5.91	6.40	7.01	6.76	7.11	7.25	6.37	6.28	6.97	7.07	7.36	7.84	7.84	
7.28	7.28	7.28	7.28	7.28	7.28	7.28	7.28	7.28	7.28	7.28	7.28	7.28	7.28	7.28	7.28	7.28	7.28	7.28	7.28	7.28	7.28	7.28	7.28	7.28	7.28	7.28	7.28	7.28	7.28	7.28	7.28	7.28	7.28	7.28	7.28	7.28	7.28	7.28	7.28	7.27	7.27	7.27	7.27	7.26	7.26	7.25	7.24	7.22	7.20	7.16	7.11	7.02	6.93	6.78	6.66	6.07	5.80	7.18	8.28	8.05	7.34	6.12	6.61	9.14	8.74	6.53	5.63	6.72	7.81	7.67	7.46	6.87	7.00	7.12	7.23	7.96	7.37	5.93	6.44	8.31	8.87	6.66	5.20	6.69	6.78	6.33	6.72	7.07	6.67	6.85	8.17	7.89	7.38	7.70	7.26	6.19	6.46	7.63	7.84	7.60	7.72	7.55	7.19	7.88	8.27	7.84	7.75	7.89	7.85	7.78	7.85	7.56	7.20	6.79	6.34	6.49	6.77	6.44	7.23	7.65	6.27	5.98	6.63	6.82	7.42	8.03	8.03	
7.28	7.28	7.28	7.28	7.28	7.28	7.28	7.28	7.28	7.28	7.28	7.28	7.28	7.28	7.28	7.28	7.28	7.28	7.28	7.28	7.28	7.28	7.28	7.28	7.28	7.28	7.28	7.28	7.28	7.28	7.28	7.28	7.28	7.28	7.28	7.28	7.28	7.28	7.28	7.28	7.27	7.27	7.27	7.27	7.27	7.26	7.26	7.25	7.23	7.22	7.19	7.15	7.09	7.04	6.95	6.85	6.55	6.41	6.90	7.28	7.47	7.43	6.28	5.98	8.37	8.88	6.71	5.50	6.52	7.79	7.79	7.71	6.80	6.39	6.86	7.85	8.71	6.81	5.50	6.57	8.38	9.16	6.90	5.50	6.48	6.85	6.58	6.65	6.86	6.54	6.94	8.17	7.89	7.07	7.23	7.22	6.65	6.65	7.68	7.87	6.92	6.83	7.18	7.22	7.60	7.91	7.62	7.70	8.32	8.43	8.03	8.16	8.18	7.64	7.20	7.05	7.33	7.00	6.06	7.00	7.87	6.34	5.75	6.39	6.70	7.39	7.94	7.94	
7.28	7.28	7.28	7.28	7.28	7.28	7.28	7.28	7.28	7.28	7.28	7.28	7.28	7.28	7.28	7.28	7.28	7.28	7.28	7.28	7.28	7.28	7.28	7.28	7.28	7.28	7.28	7.28	7.28	7.28	7.28	7.28	7.28	7.28	7.28	7.28	7.28	7.28	7.28	7.28	7.28	7.27	7.27	7.27	7.27	7.27	7.26	7.26	7.25	7.24	7.22	7.19	7.16	7.13	7.08	6.99	6.91	6.90	6.96	7.06	7.14	7.07	6.67	6.31	7.43	8.20	6.82	5.54	6.44	7.44	7.27	7.69	6.89	5.97	6.36	7.62	8.56	7.01	5.58	6.36	8.10	8.77	7.54	6.26	6.72	7.16	6.73	6.84	6.84	6.52	6.78	7.75	7.86	7.15	6.95	6.99	6.85	6.72	7.63	8.03	7.00	6.38	6.62	7.09	7.21	7.28	7.09	6.97	7.67	8.19	7.81	7.97	8.37	8.20	7.81	7.64	8.12	7.89	6.91	7.24	7.99	7.17	6.33	6.62	6.90	7.29	7.64	7.64	
7.28	7.28	7.28	7.28	7.28	7.28	7.28	7.28	7.28	7.28	7.28	7.28	7.28	7.28	7.28	7.28	7.28	7.28	7.28	7.28	7.28	7.28	7.28	7.28	7.28	7.28	7.28	7.28	7.28	7.28	7.28	7.28	7.28	7.28	7.28	7.28	7.28	7.28	7.28	7.28	7.28	7.28	7.27	7.27	7.27	7.27	7.27	7.26	7.26	7.25	7.23	7.21	7.20	7.17	7.12	7.07	7.05	7.04	7.04	7.12	7.13	6.97	6.83	6.55	7.04	7.64	6.89	5.79	6.59	7.24	6.89	7.49	7.01	5.99	6.34	7.37	8.18	7.44	5.92	6.19	7.65	8.43	8.08	6.73	6.84	7.33	6.86	6.96	6.90	6.61	6.70	7.39	7.73	7.39	7.03	6.87	6.83	6.69	7.40	8.05	7.57	6.68	6.50	7.03	7.09	6.97	6.87	6.72	7.16	7.69	7.47	7.53	8.02	8.29	8.13	7.86	8.35	8.54	8.03	7.94	8.51	8.26	7.18	6.92	7.05	7.21	7.44	7.44	
