ncols	128
nrows	92
xllcorner	280654.681342
yllcorner	3772085.885776
cellsize	500.000000
NODATA_value	-32768.000000
7.18	7.12	7.77	8.49	8.30	7.74	7.33	7.94	8.95	9.33	9.25	9.12	8.63	8.41	7.83	7.00	6.75	6.70	7.64	8.72	9.09	9.07	9.04	9.19	9.04	8.83	9.13	9.20	8.72	8.48	8.55	8.49	8.41	8.52	8.66	8.83	9.32	9.76	10.19	10.37	10.35	10.11	9.51	9.65	10.12	10.27	9.93	9.24	8.63	9.47	10.10	10.22	10.03	10.08	9.88	9.20	8.57	7.91	7.82	8.00	8.41	9.50	10.01	9.98	10.13	9.87	9.30	8.31	6.94	6.19	6.21	6.62	6.65	6.29	5.85	5.79	5.74	5.48	5.68	5.90	6.03	6.19	8.03	9.44	8.72	7.90	8.23	8.55	8.45	7.90	8.02	8.20	7.94	8.16	7.91	7.23	7.19	6.66	5.90	5.74	6.21	6.50	7.37	8.53	7.71	6.11	5.81	5.51	5.59	5.67	5.91	6.06	5.97	6.50	6.80	6.70	6.81	7.14	7.51	7.63	7.78	7.97	7.96	7.74	7.49	7.37	7.29	7.29	
7.18	7.12	7.77	8.49	8.30	7.74	7.33	7.94	8.95	9.33	9.25	9.12	8.63	8.41	7.83	7.00	6.75	6.70	7.64	8.72	9.09	9.07	9.04	9.19	9.04	8.83	9.13	9.20	8.72	8.48	8.55	8.49	8.41	8.52	8.66	8.83	9.32	9.76	10.19	10.37	10.35	10.11	9.51	9.65	10.12	10.27	9.93	9.24	8.63	9.47	10.10	10.22	10.03	10.08	9.88	9.20	8.57	7.91	7.82	8.00	8.41	9.50	10.01	9.98	10.13	9.87	9.30	8.31	6.94	6.19	6.21	6.62	6.65	6.29	5.85	5.79	5.74	5.48	5.68	5.90	6.03	6.19	8.03	9.44	8.72	7.90	8.23	8.55	8.45	7.90	8.02	8.20	7.94	8.16	7.91	7.23	7.19	6.66	5.90	5.74	6.21	6.50	7.37	8.53	7.71	6.11	5.81	5.51	5.59	5.67	5.91	6.06	5.97	6.50	6.80	6.70	6.81	7.14	7.51	7.63	7.78	7.97	7.96	7.74	7.49	7.37	7.29	7.29	
6.84	5.97	5.87	7.06	7.65	7.40	6.46	6.29	7.28	7.82	7.89	8.18	7.85	7.87	7.92	7.47	7.25	6.86	6.76	7.26	7.77	7.94	7.95	8.18	8.15	7.56	7.62	8.18	8.03	7.70	7.63	7.68	7.52	7.49	7.63	7.68	7.45	7.25	8.20	8.70	8.94	9.26	8.65	7.70	7.88	8.54	8.36	8.48	7.89	8.09	8.40	7.93	7.78	8.47	8.78	8.95	8.84	7.82	7.52	7.54	7.20	7.91	8.70	8.49	8.60	8.72	8.66	8.37	7.62	6.97	6.61	6.80	6.93	6.73	6.32	6.16	6.02	5.80	6.04	6.29	6.49	6.32	6.85	8.44	8.61	7.85	8.01	8.45	8.81	8.59	8.24	7.88	6.89	7.09	8.06	8.00	7.86	7.41	6.59	5.99	6.10	6.21	6.41	8.00	8.47	7.38	6.89	6.18	5.73	5.52	5.56	5.77	5.72	6.06	6.41	6.47	6.61	6.86	7.14	7.09	6.96	7.07	7.22	7.23	7.19	7.28	7.35	7.35	
7.68	6.37	5.19	5.79	7.11	7.69	6.70	5.85	6.41	6.80	6.81	7.45	7.67	7.64	7.90	7.93	7.63	6.90	6.36	6.57	6.91	6.84	6.67	6.88	7.23	6.88	6.60	7.09	7.39	7.35	7.12	7.18	7.17	6.99	6.88	6.60	6.17	6.08	6.72	6.81	6.89	7.69	7.69	6.76	7.14	8.01	7.16	7.26	6.91	6.58	6.93	6.46	6.70	7.25	6.94	7.98	9.37	8.30	7.09	7.24	6.56	6.33	7.10	6.88	6.87	7.66	8.35	8.52	8.23	7.81	7.20	6.98	7.23	7.29	6.99	6.76	6.54	6.44	6.79	6.99	6.60	5.63	5.62	7.60	8.62	8.05	7.68	7.66	8.26	8.81	8.81	8.57	7.04	6.37	7.57	8.27	8.70	8.21	7.56	6.91	6.13	5.64	5.60	7.28	8.73	9.04	8.96	8.26	6.86	5.82	5.65	5.68	5.70	5.87	5.99	6.13	6.38	6.55	6.80	6.84	6.64	6.67	6.84	6.81	6.80	7.03	7.19	7.19	
8.10	8.02	7.11	6.13	6.53	7.27	7.02	6.49	6.61	6.80	6.79	6.93	7.35	7.40	7.24	7.43	7.36	6.80	6.55	6.72	6.88	6.72	6.56	6.67	6.91	6.89	6.64	6.66	6.85	7.10	7.01	6.96	7.09	7.03	6.88	6.57	6.36	6.37	6.60	6.53	6.43	6.99	7.17	6.48	6.97	8.55	7.94	7.25	6.92	6.37	6.61	6.63	7.42	7.43	5.76	5.89	8.80	9.18	7.05	6.90	6.83	6.55	7.06	7.31	7.37	7.64	8.38	8.86	8.64	8.42	7.93	7.22	7.22	7.23	6.89	6.76	6.50	6.05	6.01	6.33	5.72	4.88	5.00	6.40	7.88	7.94	7.65	7.04	7.25	8.34	9.23	9.38	8.52	7.90	7.70	7.79	8.68	8.43	7.82	7.54	6.76	5.47	5.23	6.73	7.65	8.43	9.17	9.70	8.68	6.62	6.41	6.31	6.27	6.58	6.19	5.78	6.20	6.71	6.89	6.71	6.54	6.88	7.29	7.13	6.83	6.88	6.94	6.94	
6.72	7.67	7.90	6.51	5.92	6.15	5.92	5.90	6.22	6.58	6.99	6.79	6.69	6.94	6.89	6.99	7.13	6.81	6.56	6.66	6.86	6.86	6.78	6.88	6.96	6.83	6.66	6.64	6.69	6.78	6.80	6.73	6.76	6.75	6.70	6.53	6.32	6.11	6.20	6.47	6.48	6.97	7.09	6.05	6.00	7.50	7.95	7.79	7.73	7.27	6.73	6.81	7.76	8.01	6.65	4.87	6.30	9.24	8.03	6.40	6.39	6.88	7.29	7.67	8.16	7.80	7.92	8.76	9.01	9.18	8.80	7.97	7.94	7.93	7.38	6.59	5.48	5.16	5.36	5.75	5.83	5.05	4.22	4.52	5.86	6.79	7.44	6.74	6.27	6.90	8.04	8.15	7.39	7.82	8.07	8.11	8.40	8.31	8.28	8.43	8.14	6.54	5.14	6.13	7.13	7.23	7.87	9.56	9.76	7.28	6.30	6.24	6.32	7.24	7.33	6.25	6.35	7.23	7.80	7.19	6.05	6.28	7.00	7.20	7.18	7.06	6.93	6.93	
6.23	7.02	7.89	7.42	6.68	6.21	5.67	5.66	6.05	6.50	7.11	7.39	7.15	6.94	6.99	6.99	6.95	6.85	6.77	6.85	6.95	7.01	6.95	6.99	7.10	7.05	6.93	6.89	6.94	6.96	6.92	6.86	6.82	6.73	6.63	6.51	6.41	6.11	5.77	5.87	5.91	6.42	7.06	6.64	6.52	6.77	6.87	7.03	7.32	7.57	6.99	7.06	7.50	7.78	8.02	6.22	5.17	7.80	9.01	6.99	5.86	6.37	6.31	6.15	7.39	7.40	7.43	7.96	8.25	9.10	9.05	8.27	8.42	8.84	9.09	8.29	6.25	5.93	6.48	6.64	6.26	5.23	4.14	3.62	4.23	5.72	6.98	6.40	5.34	5.38	7.09	7.33	6.18	6.51	7.33	8.21	8.47	7.71	7.28	7.80	8.31	7.86	6.34	6.17	7.58	7.78	7.58	9.10	10.32	9.22	7.39	6.31	5.65	6.20	7.43	7.31	6.96	7.50	8.60	8.85	7.09	6.24	6.70	6.79	6.91	6.89	6.76	6.76	
6.51	7.09	7.84	8.14	8.31	7.74	6.78	6.33	6.28	6.51	6.87	7.37	7.70	7.47	7.38	7.30	7.02	6.92	6.88	6.83	6.76	6.87	7.02	7.08	7.09	7.02	6.97	6.95	6.94	6.91	6.83	6.75	6.67	6.56	6.45	6.31	6.18	6.07	5.88	5.60	5.46	5.64	6.24	6.61	6.83	6.84	6.43	6.32	6.43	6.56	6.61	7.01	7.08	7.08	7.71	7.38	6.28	6.62	8.51	7.86	5.57	5.19	5.33	5.62	6.66	6.36	6.52	6.90	7.12	8.51	8.85	7.73	7.32	7.54	8.18	9.01	8.21	7.18	6.35	6.21	6.45	6.49	5.93	4.61	4.54	5.74	7.24	7.37	6.18	5.50	7.18	7.47	6.67	6.58	6.96	7.66	8.41	8.22	6.90	6.48	6.89	7.47	6.74	6.15	7.37	8.18	7.75	8.26	9.42	9.97	9.84	8.60	6.98	5.91	6.04	6.54	6.60	6.78	7.61	9.01	8.70	7.42	7.59	7.66	7.46	7.19	6.90	6.90	
6.33	7.07	7.75	7.62	8.15	8.46	7.87	7.25	6.89	6.81	6.86	7.02	7.33	7.45	7.47	7.41	7.13	7.00	7.08	7.09	6.83	6.72	6.91	7.11	7.16	7.06	7.05	7.10	7.11	7.00	6.81	6.74	6.62	6.35	6.36	6.44	6.26	6.30	6.57	6.32	5.94	5.75	5.83	6.24	6.49	6.66	6.39	6.25	6.43	6.28	6.20	6.65	6.79	6.90	7.04	6.88	6.79	6.60	7.45	7.77	6.35	5.13	4.54	5.23	6.32	6.00	5.64	5.69	5.86	7.40	8.13	7.66	7.34	6.66	6.40	6.87	6.64	6.48	6.02	6.03	6.78	7.56	7.89	6.90	5.76	5.98	7.27	8.38	8.15	6.98	7.41	7.51	7.28	7.41	7.33	7.23	7.66	8.77	8.44	7.07	6.50	6.98	6.70	5.79	6.19	7.30	7.85	8.36	8.45	8.46	9.58	9.64	8.60	7.67	6.58	6.05	6.24	6.42	6.65	7.80	8.59	8.11	7.97	8.26	8.36	8.30	8.16	8.16	
5.95	6.63	7.66	7.47	7.27	7.58	7.67	7.56	7.29	7.02	6.90	6.90	6.83	6.92	7.16	7.21	7.10	7.02	7.06	7.30	7.22	6.91	6.87	7.07	7.19	7.10	7.06	7.14	7.21	7.00	6.57	6.57	6.74	6.49	6.55	6.84	6.70	6.46	6.61	6.76	6.57	6.34	6.11	6.05	6.12	6.25	6.06	5.80	6.08	6.48	6.26	6.01	6.23	6.60	6.71	6.44	6.39	6.59	7.29	7.60	7.80	7.21	5.02	4.53	5.44	5.95	5.44	5.17	5.53	7.09	7.38	7.59	8.71	8.78	8.11	6.84	6.24	6.71	7.39	7.49	6.78	6.43	6.94	6.78	5.96	5.69	6.22	7.25	8.43	8.10	7.31	6.94	6.66	7.49	7.86	7.01	6.67	7.69	9.01	8.26	7.19	7.18	6.92	5.96	5.79	6.28	6.83	7.73	7.58	6.78	7.90	8.71	7.71	7.37	7.20	6.49	6.55	7.06	6.99	7.29	7.59	7.44	7.23	7.01	6.93	7.80	8.64	8.64	
5.77	6.21	7.45	7.80	7.44	7.26	7.14	7.20	7.21	7.13	7.03	7.00	6.86	6.84	6.98	7.05	7.06	7.05	6.94	7.08	7.27	7.09	6.89	6.99	7.15	7.07	7.03	7.38	7.86	7.82	7.21	6.98	7.14	6.99	6.89	6.91	6.76	6.49	6.32	6.33	6.31	6.33	6.31	6.17	6.15	6.27	6.09	5.62	5.60	6.27	6.62	6.30	6.09	6.30	6.26	6.46	6.99	7.44	8.38	8.74	9.28	10.14	8.88	6.54	6.06	6.76	6.70	6.62	6.73	8.28	8.27	6.69	7.90	9.65	10.63	9.57	8.02	7.55	7.21	7.15	6.81	6.46	6.32	6.13	5.92	5.62	5.56	5.87	7.28	8.06	6.64	6.61	6.61	6.93	8.03	7.49	6.10	6.14	8.10	8.40	7.11	6.51	6.78	6.71	6.32	6.01	6.04	7.18	7.49	6.20	6.86	8.83	8.17	6.76	6.61	6.35	6.31	6.76	6.74	6.97	7.04	6.74	6.85	6.80	6.34	6.81	7.63	7.63	
5.66	5.83	6.82	7.43	7.27	7.13	7.00	6.99	7.03	7.13	7.18	7.13	6.87	6.80	6.89	6.90	7.00	7.13	7.04	6.98	7.11	6.99	6.74	6.87	7.09	6.93	6.71	7.03	7.90	8.53	8.32	7.93	7.62	7.15	6.80	6.70	6.61	6.42	6.35	6.15	5.93	6.15	6.42	6.29	6.24	6.47	6.40	5.85	5.36	5.36	5.92	6.53	6.48	6.31	5.86	5.96	6.83	7.47	7.96	8.31	8.51	9.59	10.94	10.25	9.10	8.75	8.80	8.65	7.51	7.75	9.17	7.20	5.97	7.15	10.01	10.56	8.17	6.83	6.87	6.88	6.87	7.19	6.89	6.19	5.98	5.78	5.68	5.78	7.02	8.20	6.38	6.15	7.07	7.13	7.71	7.90	6.39	5.56	7.04	7.74	6.74	6.12	6.63	7.56	7.68	7.05	6.63	7.32	8.33	7.27	6.05	7.96	9.30	8.24	7.16	6.41	6.26	6.55	6.43	6.55	6.64	6.54	6.77	6.88	6.94	7.02	7.04	7.04	
5.93	5.91	6.52	7.05	7.00	7.00	6.99	6.96	7.00	7.15	7.24	7.38	7.08	6.71	6.84	6.94	7.03	7.21	7.27	7.19	7.28	7.21	6.84	6.98	7.27	7.04	6.69	6.29	6.48	7.37	7.72	7.62	7.52	7.40	6.99	6.73	6.79	6.65	6.76	6.67	6.20	6.34	6.77	6.59	6.39	6.62	6.69	6.39	5.86	5.09	4.86	5.42	5.93	6.11	5.61	5.48	5.75	5.96	6.13	6.32	6.42	6.64	8.21	9.62	9.02	7.84	7.83	8.56	7.62	7.01	8.85	8.47	6.31	5.92	8.37	10.49	9.12	6.97	7.11	7.43	6.86	7.11	7.18	6.45	6.11	6.07	5.95	5.80	6.99	8.40	6.74	5.59	6.61	7.49	7.58	7.83	6.72	5.71	7.12	8.09	7.40	6.76	6.43	7.19	8.13	7.86	6.99	6.71	7.94	8.37	6.58	6.32	8.08	8.45	7.77	6.92	6.81	7.24	7.01	7.06	6.81	6.72	7.22	6.91	7.04	7.30	7.16	7.16	
6.59	6.18	6.22	6.78	6.93	7.00	7.06	6.88	6.83	7.16	7.30	7.58	7.63	7.02	6.80	7.03	7.18	7.24	7.40	7.38	7.39	7.49	7.01	6.86	7.08	6.80	6.68	6.33	5.88	6.30	6.78	6.98	7.30	7.72	7.31	6.68	6.59	6.34	6.61	6.82	6.42	6.47	6.85	6.78	6.61	6.86	7.08	7.25	7.31	6.68	5.90	5.67	5.96	6.22	5.79	5.61	5.95	6.13	6.10	6.09	6.07	6.20	6.78	7.91	8.15	6.91	6.45	7.41	7.53	7.56	8.69	8.72	7.01	5.69	7.09	9.68	9.91	8.09	7.26	7.68	7.38	7.08	7.06	6.61	6.29	6.39	6.37	5.92	6.80	8.42	7.65	5.77	5.94	7.47	7.97	8.55	7.27	5.46	6.38	7.57	7.10	6.37	6.20	6.68	7.47	7.85	7.44	6.93	7.44	8.44	8.19	7.27	7.33	7.69	7.64	6.91	6.64	7.20	7.23	7.68	7.71	7.38	8.18	8.05	7.11	6.88	6.89	6.89	
7.55	6.86	6.16	6.43	6.80	6.97	7.25	7.16	6.82	7.03	7.23	7.41	7.76	7.50	7.01	7.02	7.25	7.21	7.28	7.43	7.48	7.66	7.29	6.84	6.85	6.45	6.24	6.25	6.16	6.34	6.52	6.54	7.12	7.97	7.76	7.36	7.29	6.76	6.77	6.87	6.60	6.95	7.29	7.26	7.31	7.55	7.87	8.21	8.65	8.76	8.34	7.92	7.74	7.48	6.59	5.73	5.98	6.61	6.66	6.22	5.83	6.08	6.47	7.35	8.19	7.32	6.33	6.17	6.22	6.80	7.80	8.68	7.78	5.64	5.87	8.14	9.18	8.69	7.82	7.59	7.67	7.40	7.05	6.65	6.34	6.63	7.15	6.81	6.83	8.19	8.48	6.68	6.07	7.13	7.59	8.86	8.53	6.08	5.57	6.18	5.96	5.46	5.87	6.64	6.83	7.17	7.17	6.71	6.70	7.17	7.78	7.93	7.49	7.32	7.52	7.17	6.83	7.24	7.33	7.56	7.83	7.48	8.03	8.96	8.14	7.19	7.14	7.14	
8.06	7.28	6.34	6.23	6.43	6.64	7.02	7.23	6.91	6.88	6.98	7.03	7.26	7.24	6.97	6.97	7.28	7.35	7.24	7.22	7.44	7.85	7.90	7.80	7.84	7.44	6.82	6.20	6.18	6.52	6.53	6.21	6.86	8.21	8.53	8.85	9.03	8.71	8.54	8.42	8.15	8.35	8.50	8.32	8.37	8.28	8.15	8.12	8.07	8.27	7.92	7.44	7.44	7.38	6.58	5.65	5.65	6.44	6.93	6.34	5.29	5.24	5.72	6.50	7.56	7.48	6.98	6.04	5.64	5.99	6.10	7.32	8.17	6.65	5.64	6.74	7.77	7.87	7.64	7.28	7.39	7.46	7.11	6.70	6.18	6.19	7.08	7.42	6.92	7.59	8.59	7.67	6.56	6.64	6.76	7.96	9.04	8.16	7.34	7.12	6.17	5.22	5.57	6.69	6.70	6.59	6.88	6.61	6.48	6.53	6.81	7.38	7.36	7.09	7.34	7.63	7.51	7.37	7.27	7.32	7.20	6.62	6.91	8.40	8.94	8.26	7.84	7.84	
8.53	7.28	6.10	5.97	5.94	6.11	6.52	6.87	6.80	6.80	6.86	6.92	6.97	6.88	6.82	6.95	7.28	7.49	7.41	7.19	7.36	7.88	8.03	8.08	8.52	8.92	8.78	7.63	7.02	7.32	7.42	7.24	7.63	8.47	8.55	8.73	8.97	8.83	9.09	9.05	8.75	8.79	8.62	8.14	8.15	7.89	7.31	7.20	6.93	7.21	7.21	6.89	7.17	7.25	6.49	5.68	5.51	6.17	7.00	6.67	5.92	5.85	6.10	6.48	6.91	7.33	7.83	6.99	6.15	6.06	5.86	6.61	7.65	7.73	6.78	6.43	7.05	7.36	7.41	7.19	7.17	7.26	7.05	6.73	6.14	5.61	6.02	6.94	6.73	6.77	7.69	7.68	7.11	6.93	6.93	7.47	8.71	9.07	8.88	8.77	7.70	5.93	5.70	6.93	7.04	6.66	6.86	6.90	6.76	6.71	6.86	7.30	7.54	7.29	6.99	6.96	6.99	6.77	6.52	6.88	6.97	6.42	6.54	7.01	7.77	8.39	8.30	8.30	
9.08	8.19	6.98	6.50	6.19	6.08	6.41	6.71	6.74	6.85	6.97	7.02	6.85	6.67	6.69	6.78	6.99	7.24	7.30	7.22	7.15	7.37	7.54	7.45	7.78	8.60	9.48	9.58	9.19	9.03	8.87	8.43	7.92	7.80	7.41	7.50	7.97	7.59	7.74	7.85	7.30	7.86	8.00	7.30	7.34	7.38	6.91	6.78	6.64	7.00	7.21	6.92	7.44	7.78	7.00	5.90	5.25	5.75	6.85	6.80	6.50	6.64	6.92	7.05	6.77	6.84	7.83	7.85	7.15	6.58	6.19	6.81	7.14	7.60	7.71	7.14	7.08	7.18	7.29	7.15	7.07	7.09	6.98	6.76	6.36	5.82	5.70	6.32	6.56	6.72	7.18	7.40	7.49	7.37	7.26	7.13	7.53	8.07	8.19	8.38	8.24	6.85	6.05	6.84	7.07	6.85	6.80	6.86	6.81	6.67	6.60	6.78	7.07	7.02	6.84	6.74	6.79	6.64	6.32	6.53	6.72	6.38	6.61	6.63	6.78	7.85	8.24	8.24	
8.51	8.48	8.25	7.84	7.49	6.95	6.78	6.99	6.92	6.93	7.22	7.32	6.79	6.39	6.60	6.82	6.91	7.00	7.05	7.02	6.94	7.04	7.32	7.39	7.30	7.35	7.68	8.10	8.04	7.87	7.58	7.20	7.10	7.00	6.63	6.52	6.94	6.51	6.41	6.96	6.65	6.78	7.20	6.93	7.02	7.44	7.33	6.94	6.58	6.76	7.18	6.81	7.11	7.77	7.42	6.49	5.43	5.54	6.56	6.88	6.87	6.93	6.98	7.16	7.09	6.78	7.25	7.89	7.83	7.13	6.25	6.68	7.10	7.06	7.33	7.38	7.30	7.17	7.15	7.11	7.03	6.98	6.92	6.81	6.57	6.29	6.10	6.20	6.41	6.89	7.41	7.41	7.46	7.08	6.80	6.99	6.85	7.32	7.71	7.63	7.74	7.05	6.43	6.67	6.87	6.89	6.88	6.89	6.87	6.78	6.58	6.44	6.51	6.58	6.61	6.64	6.70	6.64	6.44	6.35	6.28	6.00	6.37	6.81	6.85	7.43	7.84	7.84	
7.64	7.58	7.70	7.72	7.69	7.44	6.98	7.03	7.01	6.90	7.32	7.79	7.18	6.29	6.46	6.87	7.00	6.96	7.07	7.15	7.09	7.20	7.18	7.15	7.03	6.97	6.91	6.81	6.61	6.66	6.66	6.71	7.02	7.12	7.08	6.85	6.67	6.29	5.94	6.48	6.95	6.66	6.87	6.98	6.85	7.36	7.78	7.49	6.82	6.59	6.93	6.73	6.73	7.44	7.57	7.21	6.33	5.70	6.22	6.67	6.90	7.29	7.05	6.71	7.08	6.97	6.75	7.40	7.87	7.66	6.80	6.58	7.18	7.20	7.01	7.11	7.29	7.31	7.22	7.16	7.09	7.01	6.95	6.88	6.72	6.56	6.45	6.32	6.09	6.18	6.82	7.10	7.33	7.10	6.66	6.98	6.82	7.08	7.56	7.54	7.46	7.09	6.80	6.77	6.85	6.87	6.86	6.89	6.90	6.83	6.74	6.60	6.48	6.44	6.44	6.45	6.44	6.43	6.37	6.28	6.20	6.01	5.98	6.33	6.66	7.02	7.27	7.27	
7.62	7.15	6.66	6.69	6.82	6.90	6.79	6.85	6.92	6.79	6.97	7.69	7.51	6.40	6.44	6.92	7.11	7.09	7.19	7.42	7.45	7.27	6.73	6.50	6.57	6.73	6.87	7.11	7.09	6.89	6.79	6.88	7.03	6.84	6.98	7.39	7.14	6.59	6.11	6.30	7.20	7.07	6.98	7.21	6.96	7.04	7.61	7.80	7.27	6.88	6.87	6.73	6.59	7.00	7.09	6.92	6.90	6.09	5.77	6.20	6.48	7.12	7.25	6.76	6.99	7.05	6.42	6.80	7.54	7.76	7.30	6.70	6.93	7.24	7.14	7.05	7.12	7.15	7.18	7.17	7.10	7.03	6.97	6.90	6.79	6.68	6.59	6.46	6.16	5.84	6.07	6.46	6.77	6.87	6.69	6.77	6.68	6.74	7.05	7.23	7.22	7.06	6.93	6.87	6.89	6.90	6.89	6.87	6.91	6.87	6.79	6.67	6.49	6.33	6.33	6.35	6.31	6.36	6.31	6.19	6.11	6.12	6.25	6.24	6.19	6.38	6.55	6.55	
8.05	7.46	6.60	6.39	6.57	6.62	6.55	6.70	6.77	6.79	6.85	7.32	7.49	6.63	6.48	6.83	7.10	7.22	7.09	7.00	7.18	7.40	6.73	6.13	6.44	6.67	6.53	6.64	6.96	7.06	6.88	6.76	6.80	6.55	6.40	7.15	7.53	7.06	6.52	6.34	7.02	7.10	6.63	6.83	7.00	6.96	7.21	7.56	7.54	7.21	7.14	7.15	6.94	6.95	6.83	6.54	6.79	6.51	5.80	5.93	6.49	6.80	6.72	6.78	7.14	7.29	6.54	6.35	7.06	7.47	7.42	7.06	6.91	7.04	7.11	7.15	7.18	7.11	7.10	7.13	7.08	7.05	7.01	6.94	6.85	6.76	6.68	6.60	6.45	6.19	6.10	6.24	6.38	6.43	6.49	6.60	6.66	6.69	6.79	6.91	6.96	6.95	6.88	6.84	6.85	6.84	6.81	6.77	6.76	6.83	6.94	7.09	7.00	6.77	6.77	6.65	6.51	6.62	6.55	6.37	6.21	6.14	6.74	7.29	6.75	6.06	5.91	5.91	
8.48	7.97	7.26	6.93	6.96	6.96	6.64	6.58	6.60	6.73	7.02	7.37	7.39	6.89	6.74	6.69	6.76	6.95	6.87	6.93	7.11	7.63	7.32	6.26	6.41	6.78	6.78	6.61	6.55	6.97	7.24	7.36	7.22	6.73	6.22	6.61	7.22	7.02	6.65	6.42	6.95	7.36	6.79	6.64	6.91	7.17	7.09	7.09	7.43	7.09	6.81	7.02	7.33	7.25	6.94	6.78	6.84	6.75	6.08	5.95	6.70	7.23	6.63	6.47	7.13	7.56	7.29	6.78	6.95	7.28	7.37	7.28	7.15	7.10	7.06	7.14	7.28	7.23	7.13	7.09	7.06	7.03	7.01	6.98	6.92	6.87	6.80	6.73	6.65	6.56	6.49	6.48	6.50	6.49	6.51	6.56	6.68	6.78	6.79	6.77	6.70	6.58	6.60	6.71	6.75	6.79	6.79	6.76	6.73	6.77	6.72	6.99	7.20	7.05	7.20	7.15	6.93	6.99	6.95	6.65	6.50	6.14	6.29	7.48	8.00	6.81	5.83	5.83	
8.44	8.05	7.44	7.13	6.93	6.68	6.52	6.45	6.35	6.31	6.69	7.41	7.26	6.64	7.00	7.11	6.70	6.75	6.65	6.89	7.09	7.43	7.75	6.81	6.36	6.64	6.88	6.92	6.70	6.79	7.04	7.41	7.51	6.99	6.29	6.32	6.80	6.83	6.64	6.39	6.91	7.56	7.11	6.82	6.89	7.21	7.13	7.07	7.56	7.36	6.88	6.89	7.40	7.33	6.79	6.61	6.87	6.96	6.29	6.00	6.52	7.45	7.16	6.43	6.80	7.17	7.21	7.07	7.02	7.19	7.25	7.25	7.25	7.21	7.08	7.05	7.14	7.18	7.13	7.08	7.05	7.02	7.02	7.02	6.97	6.92	6.88	6.83	6.78	6.75	6.68	6.59	6.60	6.62	6.64	6.66	6.68	6.84	6.96	6.81	6.70	6.35	6.28	6.65	6.88	7.00	6.82	6.79	6.92	6.99	6.66	6.39	6.59	6.38	6.35	6.63	6.59	6.74	6.99	6.58	6.21	5.77	5.50	6.26	7.63	7.62	6.86	6.86	
8.30	7.80	6.93	6.89	7.05	6.37	6.05	6.06	5.96	5.75	5.88	6.94	7.28	6.39	6.54	7.40	7.08	6.66	6.65	6.90	6.93	6.81	7.56	7.47	6.74	6.82	6.95	6.85	6.84	6.91	7.01	7.28	7.53	7.12	6.44	6.23	6.42	6.61	6.64	6.37	6.68	7.41	7.20	6.88	7.11	7.22	6.75	6.80	7.51	7.52	7.04	7.05	7.50	7.39	6.90	6.60	6.82	7.11	6.57	6.05	6.14	6.96	7.25	6.65	6.64	6.82	6.83	6.88	6.92	7.05	7.09	7.09	7.16	7.20	7.07	7.00	7.04	7.08	7.09	7.07	7.05	7.03	7.04	7.05	7.02	6.96	6.92	6.90	6.87	6.92	6.90	6.67	6.55	6.64	6.71	6.88	6.95	6.91	7.31	7.51	7.29	6.62	6.23	6.56	7.00	7.42	7.04	6.69	6.87	7.23	7.34	6.86	7.10	7.04	6.28	6.30	6.34	6.38	6.79	6.83	6.37	5.66	5.23	5.52	6.39	7.10	7.27	7.27	
8.53	8.37	7.37	7.04	7.53	6.95	6.38	6.15	5.90	5.52	5.28	5.94	6.61	6.28	5.94	6.93	7.30	6.36	6.34	7.13	7.30	6.74	7.18	7.62	7.10	6.99	7.09	6.81	6.53	6.81	7.10	7.39	7.87	7.56	6.77	6.40	6.28	6.31	6.37	6.45	6.64	7.04	7.14	6.85	7.37	7.63	6.75	6.44	7.04	7.30	6.93	7.07	7.65	7.59	7.08	6.75	6.86	7.20	6.87	6.32	6.20	6.65	7.00	6.80	6.73	6.82	6.87	6.88	6.87	6.92	6.99	6.96	7.00	7.11	7.08	7.04	7.06	7.07	7.08	7.05	7.01	6.98	7.01	7.09	7.09	7.01	6.99	6.97	6.87	6.99	7.27	7.11	6.59	6.49	6.51	6.64	7.14	7.06	7.06	7.86	7.88	6.79	6.28	6.58	7.08	7.63	7.32	6.66	6.56	7.08	7.61	7.38	7.70	8.33	7.95	7.34	6.99	7.01	7.04	7.10	6.97	6.25	5.47	5.24	5.86	6.41	6.54	6.54	
7.85	8.49	8.48	8.09	8.52	8.17	7.52	6.97	6.39	5.78	5.26	5.35	5.55	6.02	6.24	6.86	7.62	6.58	6.17	7.01	7.36	6.81	6.96	7.40	7.16	7.06	7.26	7.24	6.67	6.55	6.69	6.83	7.51	7.95	7.52	6.90	6.76	6.74	6.34	6.47	6.84	6.84	6.89	6.67	7.24	7.87	7.29	6.76	6.91	7.21	6.89	6.88	7.54	7.75	7.29	6.76	6.76	7.28	7.28	6.77	6.56	6.69	6.86	6.84	6.82	6.84	6.86	6.88	6.86	6.83	6.88	6.90	6.90	6.99	7.03	7.02	7.03	7.01	7.02	7.01	6.95	6.91	6.88	6.92	6.98	6.97	7.05	7.17	6.99	6.80	7.15	7.50	7.01	6.42	6.32	6.11	6.68	7.05	6.51	7.55	8.44	7.28	6.29	6.54	7.52	8.22	8.06	7.41	6.98	7.17	7.53	7.45	7.48	8.22	9.08	9.09	8.32	8.13	7.99	7.54	7.09	6.45	5.89	5.36	5.92	6.42	6.18	6.18	
7.05	7.64	8.30	8.90	9.79	9.91	9.15	8.05	6.94	6.37	5.78	5.38	4.91	5.05	5.90	6.90	7.98	7.42	6.77	7.22	7.54	6.97	6.75	7.20	7.14	7.10	7.33	7.66	7.52	7.08	6.92	6.68	6.72	7.36	7.53	6.95	6.58	6.76	6.41	6.35	6.94	6.93	6.72	6.51	6.87	7.63	7.51	6.90	6.70	7.13	7.07	6.83	7.29	7.64	7.53	7.08	6.79	7.14	7.32	7.03	6.87	6.89	6.95	6.90	6.84	6.85	6.86	6.89	6.89	6.83	6.84	6.88	6.90	6.93	6.98	6.99	7.01	7.01	6.91	6.82	6.78	6.85	6.87	6.82	6.91	6.96	7.15	7.32	7.27	6.92	6.75	7.23	7.33	6.53	6.18	5.76	5.98	6.90	6.37	6.86	8.46	8.26	6.83	6.33	7.13	8.28	8.86	8.69	8.27	8.30	8.25	8.07	7.98	7.78	8.39	9.28	9.17	9.03	9.00	8.79	8.07	6.78	6.15	5.66	5.84	6.29	6.14	6.14	
6.80	7.44	7.55	7.49	8.80	9.98	10.44	9.96	8.66	8.05	7.49	6.64	5.75	4.78	4.77	5.71	7.24	7.39	7.08	7.30	7.84	7.61	6.88	7.01	7.05	7.10	7.19	7.40	7.87	7.95	8.09	7.69	6.93	7.11	7.23	7.00	6.75	6.68	6.44	6.29	6.84	7.03	6.69	6.55	6.69	7.36	7.63	7.05	6.52	6.74	7.07	7.04	7.30	7.44	7.44	7.29	6.95	7.02	7.13	7.06	7.01	6.99	7.01	6.98	6.87	6.78	6.75	6.72	6.72	6.70	6.68	6.73	6.80	6.89	6.95	6.95	6.91	7.05	7.01	6.72	6.59	6.75	7.09	7.04	6.76	6.74	7.31	7.61	7.65	7.71	7.41	7.47	7.80	7.54	7.20	6.91	6.67	7.66	7.58	6.88	7.83	8.66	8.05	7.29	6.99	7.35	8.05	8.44	8.37	8.50	8.49	7.90	7.72	7.34	7.39	8.15	8.48	9.00	9.45	9.74	9.86	8.56	6.94	6.15	5.90	6.07	6.14	6.14	
5.77	6.87	7.13	6.20	6.65	7.77	9.10	10.11	10.06	9.79	9.22	8.62	8.01	6.52	5.34	5.31	6.33	6.87	6.80	6.70	7.18	7.56	7.06	6.91	6.90	6.98	7.09	6.90	7.10	7.38	8.01	8.46	7.82	7.59	7.45	7.09	7.02	6.87	6.49	6.21	6.70	7.20	6.89	6.67	6.72	7.23	7.71	7.48	6.97	6.56	6.58	6.86	7.34	7.37	7.25	7.22	7.07	7.04	7.07	7.06	7.04	7.02	7.05	7.09	6.96	6.75	6.73	6.70	6.59	6.58	6.46	6.41	6.55	6.70	6.99	7.09	6.86	7.13	7.47	7.19	6.66	6.05	6.37	7.07	6.62	6.22	7.12	8.10	8.44	8.64	8.91	8.94	8.71	8.63	8.63	8.53	8.10	8.19	8.57	8.08	7.90	8.25	8.15	7.86	7.45	7.05	7.05	7.24	7.16	7.33	7.81	7.50	7.02	6.67	6.74	7.17	7.24	7.64	8.38	8.87	9.78	10.01	8.54	7.24	6.71	6.45	6.37	6.37	
5.35	6.24	6.91	6.50	6.53	6.93	7.48	7.97	8.49	9.27	8.82	7.80	8.02	7.62	6.47	5.96	6.24	6.81	6.86	6.56	6.68	6.97	6.71	6.65	6.89	6.95	7.27	7.17	6.93	7.03	7.43	8.27	8.34	8.16	7.97	7.36	7.11	7.10	6.81	6.34	6.42	7.15	7.22	6.78	6.75	7.21	7.59	7.58	7.54	7.21	6.68	6.62	7.07	7.17	7.09	7.13	7.13	7.11	7.09	7.08	7.06	7.03	7.06	7.22	7.32	7.02	6.92	6.90	6.66	6.69	6.40	6.15	6.38	6.40	6.81	7.45	7.15	7.04	7.61	7.96	7.71	6.46	6.14	7.35	7.52	6.56	6.52	7.36	7.96	8.00	8.25	8.77	8.35	7.70	7.54	7.58	7.42	7.27	7.62	7.78	7.69	7.72	7.59	7.46	7.51	7.32	7.04	6.86	6.75	6.93	7.30	7.44	7.04	6.42	6.32	6.52	6.64	6.68	7.15	7.75	8.39	9.66	9.78	8.70	8.07	7.38	6.80	6.80	
5.68	6.28	6.99	7.18	7.42	7.88	8.01	7.03	6.74	8.24	8.64	7.13	6.95	7.52	6.95	6.29	6.26	6.84	7.31	7.31	7.40	7.39	6.92	6.47	6.66	6.99	7.39	7.63	7.38	7.21	7.32	7.67	7.81	8.15	8.37	7.77	7.33	7.25	7.10	6.76	6.24	6.55	7.26	6.95	6.63	7.16	7.47	7.36	7.47	7.55	7.19	6.89	7.02	7.11	7.09	7.13	7.16	7.15	7.12	7.09	7.07	7.06	7.03	7.09	7.43	7.24	7.00	7.11	6.92	6.94	6.67	6.35	6.73	6.53	6.24	7.43	7.82	7.10	7.20	8.05	8.70	8.32	7.56	7.41	7.74	7.13	6.21	6.22	6.57	6.62	6.85	7.71	7.94	7.38	7.06	7.08	6.99	6.96	7.04	7.04	7.04	7.14	7.21	7.16	7.16	7.05	6.95	6.72	6.64	6.95	7.18	7.40	7.33	6.89	6.58	6.38	6.45	6.42	6.62	7.14	7.28	8.07	9.00	8.69	8.31	8.17	7.86	7.86	
6.12	6.57	7.18	7.07	6.77	7.38	8.65	7.85	6.59	7.80	9.01	8.40	7.57	7.35	7.02	6.45	6.30	6.72	7.27	7.48	7.65	7.76	7.48	6.81	6.25	6.31	6.71	7.22	7.42	7.18	7.29	7.54	7.10	7.35	8.25	8.04	7.36	7.07	7.02	7.16	6.80	6.21	6.85	7.16	6.52	6.90	7.36	7.19	7.12	7.20	7.25	7.18	7.17	7.19	7.18	7.19	7.23	7.23	7.19	7.07	7.00	6.98	6.87	6.68	7.12	7.28	6.70	6.68	6.92	7.01	6.65	5.94	6.53	7.03	6.22	6.91	8.30	8.07	7.27	7.34	7.84	8.07	7.89	7.25	7.11	7.00	6.51	6.42	6.59	6.60	6.90	7.41	7.73	7.77	7.33	7.13	7.05	7.06	7.14	7.05	6.81	6.70	6.82	7.10	7.37	7.30	7.35	7.19	6.93	7.04	7.37	7.53	7.38	7.04	6.77	6.46	6.30	6.31	6.35	6.59	6.60	6.81	7.39	7.47	7.30	7.91	8.55	8.55	
5.87	6.31	7.08	6.87	6.26	6.51	7.89	8.11	6.91	7.22	8.20	8.30	8.27	7.86	7.37	6.74	6.31	6.55	7.00	7.26	7.21	7.20	7.34	7.24	6.79	6.42	6.29	6.57	7.22	7.40	7.49	7.89	7.47	7.01	7.77	8.45	8.04	7.25	6.93	7.18	7.44	6.71	6.42	7.12	6.86	6.65	7.04	7.09	7.02	7.03	7.12	7.18	7.21	7.22	7.21	7.24	7.37	7.37	7.17	7.02	7.05	7.12	7.08	6.58	6.80	7.69	7.35	6.97	7.38	7.80	7.60	6.37	6.45	7.39	6.93	6.40	7.39	8.27	7.76	7.17	7.11	7.49	7.91	7.72	7.49	7.25	6.98	6.98	7.13	7.07	7.16	7.35	7.35	7.53	7.46	7.31	7.26	7.21	7.43	7.65	7.50	7.30	7.13	7.31	7.91	8.27	8.35	8.31	8.12	7.74	7.88	8.13	7.92	7.45	7.11	6.80	6.30	6.22	6.32	6.43	6.47	6.57	6.79	7.03	6.91	7.42	8.33	8.33	
5.19	5.62	6.85	7.24	6.99	7.19	7.64	7.48	6.84	6.93	7.16	7.34	7.88	7.81	7.67	7.29	6.55	6.60	7.07	7.56	7.67	7.40	7.38	7.46	7.43	7.32	6.83	6.53	6.93	7.16	7.30	7.64	7.63	7.14	7.19	8.08	8.42	7.66	6.97	6.81	7.28	7.17	6.30	6.60	7.04	6.84	6.93	7.08	7.04	7.05	7.10	7.14	7.19	7.22	7.24	7.23	7.47	7.92	7.67	7.24	7.46	7.67	7.98	7.62	7.32	8.39	8.93	8.80	8.73	8.75	8.90	8.28	7.30	7.22	7.19	6.38	6.11	7.03	7.59	7.50	7.11	7.25	7.80	7.80	7.81	7.74	7.37	7.07	6.94	6.95	7.05	7.23	7.32	7.20	7.15	7.45	7.78	7.67	7.65	7.96	8.01	7.93	7.67	7.22	7.11	7.45	7.77	7.92	8.19	8.10	8.04	8.42	8.62	8.40	8.17	7.85	7.05	6.39	6.30	6.43	6.42	6.55	6.71	6.83	6.82	7.27	7.90	7.90	
5.41	5.43	5.99	6.70	7.11	7.63	8.32	7.76	6.77	7.08	6.94	6.93	7.60	7.38	7.21	7.43	7.00	6.73	7.08	7.60	7.98	7.83	7.40	7.24	7.07	7.11	6.86	6.61	6.91	6.88	7.14	7.49	7.32	7.00	6.92	7.53	8.16	7.92	7.40	6.76	6.93	7.49	6.80	6.49	6.94	7.03	7.05	7.13	7.09	7.06	7.09	7.11	7.16	7.22	7.22	7.18	7.20	7.87	8.19	7.50	7.60	7.90	8.35	8.67	8.21	8.19	8.38	8.29	8.16	7.95	7.90	7.95	7.34	6.74	6.93	6.91	6.42	6.48	7.01	7.37	7.17	7.01	7.40	7.55	7.41	7.44	7.32	7.08	6.90	6.88	6.99	7.08	7.31	7.28	6.76	6.68	7.25	7.37	7.29	7.45	7.45	7.38	7.33	7.07	6.72	6.60	6.77	6.91	7.09	7.48	7.55	7.80	8.20	8.19	8.34	8.46	8.26	7.36	6.61	6.55	6.37	6.33	6.66	7.00	7.04	7.25	7.51	7.51	
6.05	5.92	5.69	5.84	6.51	7.18	8.42	8.48	7.13	7.21	7.08	6.70	7.34	7.47	6.96	6.98	7.02	6.79	6.93	7.22	7.46	7.70	7.23	7.00	7.22	7.04	6.69	6.53	6.98	6.94	7.05	7.74	7.58	7.04	6.88	7.19	7.67	7.83	7.89	7.31	6.77	7.38	7.34	6.85	6.96	7.04	7.08	7.15	7.14	7.12	7.11	7.13	7.16	7.28	7.33	7.30	7.14	7.39	8.14	7.94	7.99	8.10	8.03	8.04	7.45	7.14	7.41	7.52	7.31	7.55	7.63	7.57	7.60	7.08	6.90	7.24	7.26	6.95	6.96	7.06	7.04	6.98	7.03	7.27	7.16	7.04	7.11	7.09	7.01	6.97	7.02	7.02	7.09	7.29	6.93	6.44	6.65	6.76	6.83	7.10	7.17	6.97	6.89	7.07	6.99	6.74	6.72	6.73	6.58	6.83	6.98	7.16	7.60	7.61	7.77	7.98	8.29	7.98	7.35	7.28	7.18	6.68	6.57	7.15	7.48	7.48	7.42	7.42	
6.51	6.46	6.12	5.79	5.92	6.46	8.14	9.01	7.76	7.16	7.14	6.71	6.69	7.04	6.98	6.83	6.83	6.80	6.86	6.98	6.90	7.41	7.30	6.80	7.46	7.60	7.33	6.94	6.98	7.05	6.91	7.51	7.59	7.25	7.07	6.93	7.08	7.46	7.73	7.76	7.14	6.96	7.29	7.13	7.04	7.09	7.09	7.13	7.15	7.14	7.10	7.10	7.06	7.31	7.57	7.42	7.30	7.59	7.97	7.88	7.92	7.85	7.65	7.56	6.95	6.77	7.27	7.54	7.32	7.49	7.80	7.63	7.74	7.71	7.30	7.17	7.37	7.20	7.06	7.06	6.90	6.92	6.91	7.07	7.16	7.04	7.04	7.06	6.97	6.93	7.03	7.09	7.05	7.10	7.00	6.71	6.57	6.52	6.54	6.76	7.00	6.91	6.73	6.92	7.04	6.86	6.77	6.74	6.60	6.74	6.84	6.84	7.28	7.40	7.42	7.82	8.19	8.07	7.83	7.76	7.92	7.53	6.80	6.97	7.38	7.72	7.93	7.93	
6.70	6.64	6.42	6.19	5.83	5.71	7.12	9.02	8.69	7.47	7.17	7.08	6.82	6.63	6.70	6.86	6.78	6.75	7.06	7.26	6.76	7.01	7.18	6.64	7.06	7.25	7.37	7.28	6.91	6.79	6.90	7.39	7.26	7.24	7.55	7.31	6.98	7.29	7.37	7.63	7.75	7.24	7.18	7.23	7.13	7.13	7.13	7.14	7.16	7.16	7.10	7.10	6.91	7.01	7.53	7.33	6.72	6.81	7.05	6.62	6.58	6.91	7.15	7.74	7.34	6.76	7.13	7.37	7.35	7.32	7.49	7.38	7.23	7.35	7.23	7.04	7.13	7.16	7.05	7.11	6.96	6.88	7.02	7.03	7.08	7.07	6.98	7.03	7.03	6.94	6.96	7.01	7.05	7.03	6.92	6.91	6.73	6.54	6.51	6.64	6.89	6.86	6.73	6.74	6.91	6.97	6.90	6.81	6.64	6.73	6.86	6.79	7.10	7.29	7.08	7.55	8.15	8.12	7.75	7.31	7.43	7.54	7.08	6.99	7.01	7.21	7.61	7.61	
6.82	6.78	6.64	6.51	6.13	5.63	6.13	8.01	9.29	8.77	7.88	7.58	7.59	7.17	6.75	6.83	6.85	6.76	7.16	7.77	7.39	7.08	6.96	6.64	6.96	7.01	6.98	7.44	7.22	6.54	6.81	7.61	7.42	7.13	7.54	7.49	7.05	7.21	7.29	7.30	7.57	7.45	7.27	7.25	7.20	7.17	7.16	7.16	7.18	7.20	7.15	7.03	6.59	6.47	7.24	7.67	7.14	6.51	6.62	6.59	6.39	6.63	6.73	7.43	7.60	6.89	6.96	7.29	7.45	7.42	7.32	7.29	7.16	7.05	6.98	7.04	7.09	7.13	7.19	7.26	7.17	6.92	7.05	7.10	7.06	7.11	7.01	7.02	7.06	7.04	7.02	6.90	6.96	7.05	6.87	6.90	6.89	6.69	6.62	6.72	6.92	6.92	6.90	6.77	6.72	6.82	6.88	6.80	6.60	6.62	6.67	6.68	6.98	7.24	6.98	6.85	7.15	7.50	7.53	7.13	6.98	7.11	7.16	7.20	7.25	7.19	7.11	7.11	
6.89	6.85	6.76	6.65	6.43	6.00	5.78	6.59	8.21	9.19	8.86	8.03	7.78	7.58	7.12	6.94	7.01	6.91	7.01	7.73	7.98	7.50	7.00	6.81	7.25	7.39	6.90	7.52	7.94	7.10	6.75	7.48	7.68	7.30	7.37	7.33	7.12	7.09	7.16	7.18	7.21	7.21	7.22	7.25	7.23	7.21	7.19	7.18	7.20	7.20	7.25	7.35	6.71	5.83	6.15	7.06	7.51	7.10	6.92	7.08	6.85	6.87	6.82	7.05	7.51	7.17	6.86	7.07	7.31	7.44	7.26	7.17	7.24	7.16	7.05	7.16	7.24	7.11	7.15	7.32	7.35	7.13	7.10	7.16	7.16	7.17	7.06	7.05	7.07	7.14	7.32	7.21	7.11	7.25	7.10	6.98	7.03	6.86	6.67	6.76	6.93	6.92	6.97	6.95	6.74	6.72	6.86	6.83	6.68	6.69	6.55	6.53	6.75	7.01	7.10	6.90	6.84	7.14	7.47	7.39	7.09	6.89	7.09	7.45	7.72	7.81	7.75	7.75	
6.96	6.93	6.86	6.77	6.63	6.35	5.87	5.80	6.48	7.72	8.63	8.19	7.60	7.32	7.16	7.00	7.08	7.11	7.00	7.52	8.13	7.91	7.13	6.75	7.34	7.60	6.85	7.06	7.63	7.42	6.84	6.95	7.35	7.46	7.54	7.30	7.20	7.11	7.05	7.13	7.15	7.10	7.10	7.15	7.17	7.19	7.18	7.19	7.22	7.23	7.01	7.28	7.52	6.41	5.82	6.33	6.87	7.03	7.10	7.18	6.98	6.98	7.10	7.09	7.32	7.30	6.96	7.04	7.19	7.25	7.19	7.25	7.23	7.14	7.21	7.20	7.25	7.11	6.96	7.06	7.15	7.10	6.99	7.00	7.13	7.18	7.07	6.99	7.03	7.17	7.39	7.37	7.23	7.33	7.29	7.12	7.17	7.11	6.80	6.69	6.88	6.91	6.95	7.11	6.91	6.78	6.99	7.02	6.86	6.85	6.67	6.50	6.49	6.62	7.01	7.07	6.98	7.15	7.44	7.63	7.45	6.94	6.80	7.21	7.37	7.60	7.94	7.94	
7.00	6.98	6.92	6.87	6.77	6.63	6.31	5.97	5.90	6.48	7.68	8.04	7.65	7.21	7.09	6.99	7.09	7.13	6.87	7.26	7.92	8.32	7.72	6.69	7.10	7.51	7.07	7.20	7.27	7.28	7.21	7.10	7.10	7.30	7.56	7.36	7.22	7.21	7.15	7.13	7.12	7.06	7.06	7.09	7.12	7.15	7.15	7.19	7.26	7.49	7.18	6.79	7.70	7.86	7.12	7.10	7.10	6.86	6.94	7.11	7.04	6.94	7.05	7.11	7.21	7.31	7.08	7.07	7.39	7.28	7.04	7.34	7.31	6.98	7.17	7.20	7.13	7.15	7.01	6.98	7.03	7.07	7.04	6.96	7.01	7.11	7.13	6.99	6.87	7.00	7.27	7.29	7.19	7.23	7.23	7.12	7.05	7.09	6.98	6.76	6.82	6.99	7.04	7.27	7.16	6.82	6.95	7.17	7.03	6.93	6.91	6.75	6.62	6.57	6.86	7.08	6.96	7.04	7.22	7.42	7.48	7.12	6.81	6.96	7.12	7.37	7.69	7.69	
7.05	7.03	6.98	6.94	6.87	6.78	6.65	6.46	6.23	6.28	6.88	7.53	7.58	7.24	6.97	6.79	6.93	7.01	6.75	6.87	7.11	7.74	7.95	7.24	7.25	7.35	7.09	7.36	7.45	7.30	7.28	7.36	7.26	7.20	7.34	7.33	7.26	7.23	7.21	7.20	7.16	7.09	7.07	7.08	7.11	7.12	7.13	7.18	7.35	7.80	8.02	7.42	7.33	7.84	7.55	7.31	7.38	7.13	6.91	6.93	6.96	6.92	6.94	6.96	7.02	7.17	7.13	7.03	7.37	7.48	7.18	7.29	7.36	7.00	7.01	7.19	7.14	7.17	7.14	7.07	7.06	7.01	7.05	7.11	7.07	7.11	7.19	7.06	6.86	6.83	7.05	7.22	7.25	7.22	7.23	7.21	7.05	6.99	6.97	6.74	6.62	6.83	6.99	7.22	7.28	6.97	6.89	7.18	7.22	7.00	7.09	7.14	7.13	6.99	6.96	7.20	7.11	7.05	7.15	7.26	7.29	7.09	6.93	6.99	7.16	7.40	7.58	7.58	
7.07	7.06	7.03	6.99	6.95	6.90	6.83	6.77	6.68	6.61	6.68	6.99	7.23	7.17	6.89	6.60	6.63	6.75	6.73	6.73	6.64	6.87	7.20	7.18	7.35	7.31	7.06	7.10	7.21	7.17	7.02	7.11	7.25	7.25	7.25	7.27	7.27	7.26	7.24	7.26	7.24	7.18	7.12	7.09	7.10	7.08	7.04	7.04	7.19	7.47	7.85	7.66	7.09	7.26	7.37	7.16	7.22	7.28	7.12	6.99	7.00	7.00	7.01	6.99	6.98	7.06	7.02	6.94	7.07	7.19	7.20	7.17	7.22	7.13	7.02	7.13	7.17	7.17	7.16	7.13	7.12	6.93	6.86	7.11	7.18	7.18	7.23	7.07	6.92	6.84	6.82	6.96	7.15	7.19	7.22	7.30	7.20	7.06	7.04	6.76	6.29	6.35	6.56	6.86	7.11	7.02	6.90	7.02	7.24	7.16	7.13	7.17	7.23	7.13	6.97	7.14	7.17	7.06	7.06	7.16	7.20	7.09	7.00	7.02	7.11	7.33	7.49	7.49	
7.10	7.09	7.06	7.04	7.01	6.98	6.95	6.92	6.90	6.90	6.89	6.93	7.01	7.04	6.90	6.71	6.62	6.65	6.75	6.79	6.74	6.77	6.74	6.75	7.03	7.14	7.06	7.05	7.08	7.10	7.02	7.00	7.19	7.28	7.26	7.26	7.25	7.23	7.22	7.23	7.22	7.21	7.18	7.12	7.09	7.06	6.93	6.73	6.67	6.78	7.20	7.42	7.13	7.12	7.33	7.28	7.20	7.22	7.18	7.10	7.09	7.10	7.10	7.06	7.00	7.05	7.01	6.94	7.01	7.01	7.06	7.09	7.12	7.11	7.02	7.09	7.18	7.16	7.15	7.19	7.28	7.15	6.83	6.89	6.95	6.99	7.15	7.04	6.94	6.90	6.82	6.80	6.90	6.98	7.03	7.14	7.26	7.21	7.29	7.16	6.43	6.16	6.28	6.41	6.57	6.62	6.69	6.84	7.01	7.10	7.06	7.05	7.14	7.09	6.95	6.98	7.07	7.06	7.05	7.10	7.15	7.14	7.08	7.07	7.12	7.28	7.40	7.40	
7.11	7.11	7.09	7.07	7.06	7.04	7.02	7.01	7.00	7.00	7.01	7.02	7.00	6.98	6.94	6.87	6.76	6.71	6.79	6.86	6.89	6.94	6.87	6.78	6.91	7.02	7.03	7.07	7.11	7.17	7.13	7.08	7.17	7.26	7.26	7.27	7.27	7.23	7.19	7.18	7.16	7.16	7.18	7.16	7.09	7.04	6.91	6.65	6.50	6.56	6.93	7.27	7.16	7.06	7.14	7.21	7.19	7.18	7.18	7.14	7.10	7.10	7.13	7.08	6.99	7.02	7.01	6.96	6.99	7.03	7.03	7.03	7.10	7.08	6.95	7.01	7.16	7.16	7.13	7.14	7.24	7.28	7.01	6.85	6.83	6.84	6.98	7.00	6.97	6.95	6.90	6.89	6.89	6.94	6.97	7.00	7.25	7.43	7.67	7.82	7.25	6.64	6.66	6.71	6.54	6.41	6.41	6.58	6.73	6.85	6.91	6.94	7.01	7.01	6.97	6.97	7.02	7.05	7.09	7.12	7.13	7.13	7.11	7.10	7.12	7.24	7.34	7.34	
7.13	7.13	7.11	7.10	7.09	7.08	7.06	7.06	7.05	7.06	7.06	7.05	7.03	7.00	6.98	6.94	6.87	6.80	6.78	6.82	6.89	6.99	6.99	6.91	6.94	7.03	7.06	7.07	7.09	7.14	7.14	7.12	7.16	7.20	7.21	7.23	7.26	7.24	7.21	7.17	7.12	7.11	7.13	7.14	7.11	7.02	6.95	6.84	6.65	6.59	6.84	7.09	7.08	7.02	7.04	7.10	7.13	7.11	7.12	7.10	7.05	7.03	7.07	7.07	6.98	6.96	6.97	6.95	6.99	7.03	7.07	7.09	7.15	7.13	6.99	6.99	7.08	7.09	7.02	6.98	6.97	7.05	7.08	6.95	6.85	6.81	6.87	6.96	6.99	6.98	6.95	6.98	6.98	7.05	7.07	6.99	7.06	7.28	7.69	8.14	8.12	7.51	7.27	7.49	7.26	6.66	6.37	6.40	6.53	6.68	6.76	6.84	6.91	6.94	6.96	7.00	7.01	7.00	7.04	7.07	7.09	7.10	7.09	7.11	7.13	7.19	7.26	7.26	
7.14	7.14	7.13	7.12	7.11	7.10	7.10	7.09	7.09	7.09	7.08	7.08	7.07	7.05	7.04	7.01	6.98	6.94	6.88	6.85	6.86	6.93	7.00	6.98	6.96	7.01	7.08	7.08	7.09	7.13	7.14	7.14	7.17	7.19	7.19	7.19	7.21	7.23	7.23	7.22	7.15	7.11	7.11	7.11	7.09	7.02	6.99	6.95	6.80	6.68	6.86	7.10	7.09	7.06	7.05	7.06	7.09	7.09	7.12	7.11	7.07	7.03	7.02	7.01	6.96	6.91	6.88	6.87	6.92	6.95	6.99	7.07	7.16	7.20	7.11	7.07	7.09	7.10	7.03	6.92	6.86	6.83	6.90	6.97	6.91	6.81	6.83	6.93	6.98	6.99	6.97	6.97	6.98	7.07	7.13	7.05	6.97	6.93	7.11	7.54	7.84	7.58	7.18	7.41	7.61	6.99	6.47	6.37	6.51	6.69	6.76	6.83	6.89	6.93	6.95	6.99	6.99	6.98	7.01	7.05	7.07	7.09	7.09	7.08	7.06	7.03	7.02	7.02	
7.15	7.15	7.14	7.13	7.13	7.12	7.12	7.11	7.11	7.11	7.11	7.10	7.09	7.08	7.07	7.05	7.03	7.01	6.97	6.94	6.93	6.94	6.99	7.01	7.00	7.02	7.08	7.10	7.11	7.13	7.13	7.16	7.21	7.22	7.21	7.19	7.18	7.20	7.20	7.21	7.18	7.14	7.13	7.12	7.10	7.07	7.04	7.00	6.90	6.79	6.88	7.09	7.12	7.11	7.10	7.11	7.12	7.11	7.13	7.15	7.10	7.04	6.98	6.90	6.85	6.77	6.75	6.83	6.92	6.94	7.01	7.07	7.08	7.10	7.08	7.04	7.05	7.08	6.97	6.79	6.83	6.90	6.87	7.05	7.19	7.07	6.94	6.91	6.89	6.85	6.87	6.91	6.84	6.85	6.98	6.97	6.90	6.80	6.77	7.05	7.35	7.31	7.05	7.20	7.59	7.34	6.80	6.42	6.54	6.79	6.81	6.84	6.87	6.89	6.92	6.98	7.00	6.97	6.96	6.99	6.98	6.98	7.07	7.16	7.15	6.93	6.74	6.74	
7.15	7.15	7.15	7.14	7.14	7.14	7.13	7.13	7.13	7.13	7.12	7.12	7.11	7.11	7.09	7.08	7.07	7.05	7.02	6.99	6.99	6.98	7.00	7.01	7.00	7.02	7.08	7.09	7.10	7.12	7.12	7.13	7.20	7.24	7.23	7.20	7.17	7.16	7.17	7.16	7.17	7.17	7.14	7.13	7.11	7.09	7.07	7.04	6.98	6.88	6.92	7.10	7.15	7.13	7.13	7.11	7.10	7.12	7.14	7.18	7.18	7.15	7.21	7.24	7.19	7.03	6.85	6.95	7.17	7.13	7.12	7.15	7.13	7.10	7.05	6.98	7.05	7.31	7.35	7.21	7.25	7.37	7.16	7.11	7.30	7.36	7.28	7.12	7.02	6.98	7.00	7.16	7.15	6.97	6.85	6.83	6.85	6.83	6.77	6.89	7.19	7.36	7.24	7.27	7.56	7.69	7.45	6.88	6.69	6.87	6.86	6.83	6.86	6.88	6.90	6.94	6.97	6.96	6.92	6.96	6.94	6.81	6.85	7.20	7.57	7.34	6.98	6.98	
7.16	7.16	7.15	7.15	7.15	7.15	7.14	7.14	7.14	7.14	7.14	7.13	7.13	7.12	7.11	7.10	7.09	7.08	7.05	7.03	7.02	7.03	7.04	7.04	7.01	7.02	7.07	7.09	7.10	7.11	7.12	7.11	7.11	7.18	7.21	7.20	7.16	7.17	7.17	7.15	7.17	7.17	7.14	7.13	7.11	7.08	7.08	7.06	7.03	6.95	6.94	7.09	7.16	7.17	7.20	7.19	7.10	7.11	7.19	7.29	7.47	7.49	7.62	7.90	8.02	7.89	7.42	7.09	7.20	7.23	7.20	7.23	7.28	7.25	7.24	7.25	7.34	7.77	8.05	7.99	7.91	7.90	7.69	7.32	7.23	7.45	7.76	7.85	7.69	7.56	7.50	7.50	7.57	7.56	7.23	6.94	6.93	6.93	6.90	6.87	7.00	7.31	7.55	7.44	7.37	7.64	7.65	7.28	6.97	6.98	6.97	6.86	6.84	6.85	6.87	6.89	6.88	6.92	6.93	7.01	7.13	6.88	6.53	6.70	7.29	7.55	7.49	7.49	
7.16	7.16	7.16	7.16	7.15	7.15	7.15	7.15	7.15	7.15	7.14	7.14	7.14	7.13	7.13	7.12	7.11	7.10	7.09	7.06	7.04	7.04	7.05	7.05	7.03	7.03	7.07	7.08	7.10	7.09	7.10	7.11	7.09	7.13	7.19	7.18	7.16	7.18	7.16	7.12	7.15	7.16	7.14	7.14	7.13	7.10	7.08	7.08	7.05	6.99	6.99	7.09	7.13	7.16	7.28	7.38	7.32	7.25	7.32	7.40	7.63	7.64	7.48	7.59	7.81	7.94	7.69	7.25	7.13	7.18	7.17	7.26	7.47	7.49	7.48	7.53	7.43	7.45	7.62	7.71	7.81	7.92	8.07	7.92	7.54	7.51	7.71	7.98	7.95	7.69	7.56	7.43	7.37	7.60	7.54	7.19	7.07	6.97	6.81	6.75	6.75	6.90	7.34	7.43	7.09	7.16	7.28	7.14	7.04	7.06	7.10	7.00	6.87	6.80	6.79	6.84	6.78	6.74	6.75	6.84	7.28	7.30	6.60	6.37	6.53	6.84	7.16	7.16	
7.16	7.16	7.16	7.16	7.16	7.16	7.16	7.16	7.15	7.15	7.15	7.15	7.15	7.14	7.14	7.13	7.12	7.12	7.11	7.09	7.07	7.08	7.09	7.06	7.04	7.05	7.07	7.08	7.10	7.09	7.11	7.13	7.10	7.12	7.17	7.16	7.16	7.18	7.16	7.12	7.13	7.15	7.14	7.15	7.16	7.13	7.11	7.10	7.07	7.01	7.01	7.08	7.11	7.12	7.21	7.39	7.49	7.42	7.28	7.15	7.26	7.30	7.11	7.04	7.15	7.34	7.37	7.24	7.16	7.18	7.14	7.18	7.45	7.53	7.41	7.27	7.11	6.97	6.97	7.05	7.17	7.23	7.46	7.74	7.51	7.22	7.11	7.18	7.32	7.29	7.23	7.23	7.20	7.23	7.31	7.21	7.18	7.17	6.81	6.52	6.57	6.62	6.84	7.06	7.03	7.00	7.02	6.93	6.89	6.98	7.11	7.17	7.14	7.08	6.93	6.92	6.92	6.71	6.55	6.48	6.90	7.38	6.81	6.55	6.75	6.59	6.54	6.54	
7.16	7.16	7.16	7.16	7.16	7.16	7.16	7.16	7.16	7.16	7.15	7.15	7.15	7.15	7.14	7.14	7.14	7.13	7.12	7.10	7.09	7.10	7.13	7.11	7.06	7.06	7.07	7.07	7.08	7.06	7.07	7.11	7.11	7.12	7.14	7.16	7.17	7.18	7.18	7.15	7.15	7.15	7.13	7.13	7.14	7.13	7.12	7.12	7.08	7.03	7.02	7.05	7.03	6.96	6.91	7.00	7.19	7.30	7.12	6.87	6.90	7.00	6.99	6.99	7.07	7.16	7.19	7.16	7.12	7.17	7.15	7.02	7.05	7.07	7.04	7.03	6.96	6.86	6.78	6.76	6.80	6.76	6.71	6.87	6.96	6.86	6.86	6.91	6.94	7.05	6.95	6.83	6.91	6.96	6.91	6.98	7.21	7.45	7.38	6.92	6.76	6.79	6.85	6.92	7.01	7.19	7.21	7.01	6.87	6.86	6.96	7.15	7.27	7.39	7.37	7.18	7.10	6.84	6.49	6.42	6.68	7.22	6.99	6.72	7.13	6.89	6.41	6.41	
7.17	7.17	7.16	7.16	7.16	7.16	7.16	7.16	7.16	7.16	7.16	7.16	7.15	7.15	7.15	7.15	7.14	7.14	7.13	7.12	7.10	7.09	7.12	7.12	7.09	7.10	7.10	7.12	7.15	7.10	7.07	7.09	7.13	7.16	7.15	7.15	7.17	7.18	7.18	7.16	7.15	7.15	7.13	7.11	7.11	7.11	7.10	7.10	7.08	7.05	7.06	7.10	7.06	6.88	6.72	6.71	6.84	7.04	7.07	6.96	6.94	6.98	7.01	7.04	7.11	7.16	7.17	7.15	7.05	7.02	7.08	7.00	6.91	6.87	6.88	6.96	6.97	6.91	6.80	6.72	6.71	6.78	6.75	6.64	6.61	6.60	6.70	6.84	6.78	6.89	7.04	6.94	6.95	7.18	7.14	7.04	7.28	7.43	7.49	7.39	7.22	6.99	7.00	7.08	6.96	7.17	7.46	7.34	7.09	7.00	6.97	6.98	6.97	7.06	7.43	7.52	7.38	7.05	6.48	6.39	6.72	7.11	7.11	6.73	6.91	6.80	6.32	6.32	
7.17	7.17	7.16	7.16	7.16	7.16	7.16	7.16	7.16	7.16	7.16	7.16	7.16	7.16	7.15	7.15	7.15	7.14	7.14	7.13	7.11	7.11	7.13	7.13	7.10	7.11	7.11	7.13	7.23	7.24	7.19	7.16	7.15	7.17	7.16	7.15	7.16	7.17	7.17	7.17	7.16	7.16	7.15	7.12	7.11	7.10	7.10	7.09	7.07	7.06	7.07	7.26	7.45	7.26	7.03	6.99	6.99	6.99	7.06	7.07	7.04	7.03	7.05	7.10	7.12	7.13	7.12	7.12	7.05	6.98	7.03	7.02	7.01	7.03	6.98	6.91	6.92	6.89	6.71	6.66	6.66	6.65	6.80	6.83	6.53	6.44	6.66	6.93	6.77	6.74	7.23	7.43	7.45	7.60	7.69	7.54	7.47	7.42	7.27	7.42	7.69	7.22	6.81	6.97	6.94	6.95	7.31	7.56	7.23	6.98	7.09	7.21	7.03	6.93	7.36	7.74	7.74	7.41	6.82	6.45	6.68	6.86	6.96	6.93	7.00	6.97	6.65	6.65	
7.17	7.17	7.17	7.17	7.16	7.16	7.16	7.16	7.16	7.16	7.16	7.16	7.16	7.16	7.16	7.15	7.15	7.15	7.14	7.14	7.12	7.13	7.16	7.16	7.14	7.12	7.11	7.09	7.14	7.19	7.19	7.18	7.17	7.17	7.17	7.17	7.17	7.17	7.17	7.17	7.18	7.19	7.18	7.15	7.13	7.12	7.10	7.10	7.07	7.04	6.97	7.14	7.52	7.54	7.29	7.21	7.23	7.10	7.06	7.10	7.08	7.08	7.09	7.11	7.13	7.14	7.14	7.12	7.09	7.11	7.19	7.12	7.13	7.21	7.23	7.08	7.04	7.03	6.64	6.47	6.50	6.47	6.68	7.23	6.98	6.46	6.57	7.14	7.29	7.04	7.27	7.24	7.16	7.23	7.37	7.56	7.67	7.69	7.39	7.34	7.90	7.88	7.18	6.95	6.99	6.87	6.91	7.36	7.31	6.94	7.02	7.35	7.12	6.87	7.40	7.92	8.00	7.59	7.07	6.52	6.68	6.95	6.94	7.15	7.33	7.29	7.11	7.11	
7.17	7.17	7.17	7.17	7.17	7.17	7.17	7.16	7.16	7.16	7.16	7.16	7.16	7.16	7.16	7.16	7.16	7.15	7.15	7.14	7.12	7.11	7.15	7.17	7.18	7.16	7.13	7.12	7.12	7.14	7.17	7.17	7.18	7.18	7.17	7.17	7.18	7.18	7.17	7.17	7.18	7.19	7.18	7.17	7.15	7.13	7.12	7.10	7.08	7.04	6.89	6.82	7.02	7.19	7.14	7.09	7.15	7.14	7.10	7.13	7.13	7.12	7.13	7.13	7.13	7.15	7.14	7.09	7.07	7.08	7.22	7.18	7.10	7.24	7.42	7.35	7.40	7.39	7.04	6.77	6.61	6.65	6.70	7.35	7.73	7.27	6.91	7.22	7.52	7.28	7.35	7.24	6.97	6.94	7.02	7.23	7.49	7.77	7.69	7.54	7.90	8.37	8.16	7.65	7.48	7.36	7.12	7.26	7.22	6.93	6.90	7.13	6.95	6.44	6.98	7.86	8.28	8.12	7.61	7.05	6.93	7.26	7.09	6.84	7.11	7.44	7.49	7.49	
7.17	7.17	7.17	7.17	7.17	7.17	7.17	7.17	7.17	7.17	7.16	7.16	7.16	7.16	7.16	7.16	7.16	7.15	7.15	7.15	7.13	7.12	7.12	7.16	7.18	7.17	7.15	7.15	7.15	7.15	7.17	7.18	7.18	7.18	7.17	7.17	7.18	7.17	7.16	7.16	7.16	7.18	7.18	7.17	7.15	7.13	7.12	7.11	7.09	7.04	6.94	6.86	6.89	6.99	7.06	7.07	7.09	7.13	7.13	7.15	7.19	7.19	7.17	7.16	7.12	7.13	7.15	7.09	7.03	6.98	7.02	7.09	7.00	7.23	7.65	7.68	8.03	8.13	7.78	7.59	7.35	7.20	7.04	7.17	7.60	7.80	7.39	7.08	7.16	7.07	7.22	7.39	7.18	6.99	6.97	7.08	7.21	7.43	7.57	7.49	7.50	7.83	8.09	7.90	7.81	7.91	7.85	7.86	7.57	7.11	7.11	7.13	6.86	6.07	5.99	6.81	7.60	8.11	8.10	7.96	7.82	7.83	7.62	6.92	6.83	7.43	7.77	7.77	
7.17	7.17	7.17	7.17	7.17	7.17	7.17	7.17	7.17	7.17	7.17	7.16	7.16	7.16	7.16	7.16	7.16	7.16	7.15	7.15	7.14	7.13	7.11	7.13	7.17	7.16	7.14	7.14	7.15	7.14	7.15	7.16	7.17	7.18	7.17	7.16	7.17	7.16	7.16	7.16	7.16	7.16	7.18	7.17	7.16	7.14	7.12	7.11	7.09	7.06	7.03	7.02	7.02	7.04	7.09	7.10	7.09	7.12	7.12	7.11	7.16	7.22	7.21	7.20	7.14	7.11	7.12	7.11	7.06	7.04	7.03	7.07	6.80	6.80	7.41	7.60	7.96	8.47	8.30	7.70	7.34	7.14	6.93	6.77	6.75	7.07	6.99	6.75	6.78	6.83	6.84	7.01	7.10	7.01	6.88	6.88	6.99	7.04	7.12	7.17	7.17	7.31	7.49	7.40	7.26	7.40	7.66	7.98	8.14	7.99	7.98	7.89	7.44	6.67	6.23	6.45	6.99	7.47	7.44	7.21	7.33	7.65	7.85	7.33	6.72	7.24	7.83	7.83	
7.17	7.17	7.17	7.17	7.17	7.17	7.17	7.17	7.17	7.17	7.17	7.17	7.16	7.16	7.16	7.16	7.16	7.16	7.16	7.15	7.15	7.14	7.12	7.12	7.17	7.18	7.15	7.14	7.15	7.15	7.14	7.14	7.15	7.17	7.16	7.17	7.17	7.15	7.16	7.17	7.16	7.16	7.17	7.18	7.17	7.15	7.14	7.12	7.11	7.10	7.07	7.07	7.07	7.08	7.11	7.11	7.10	7.11	7.12	7.08	7.08	7.13	7.16	7.19	7.18	7.14	7.14	7.15	7.12	7.10	7.04	7.10	6.89	6.40	6.48	6.69	6.84	7.49	7.99	7.37	6.86	6.76	6.60	6.27	6.33	7.01	7.37	7.22	6.86	6.86	6.81	6.75	6.92	6.95	6.89	6.82	6.89	6.97	6.99	7.06	7.10	7.16	7.19	7.17	6.90	6.66	6.85	7.06	7.20	7.32	7.57	7.90	8.05	7.86	7.54	7.26	7.28	7.63	7.56	6.95	6.74	6.95	7.36	7.46	6.83	7.02	7.65	7.65	
7.17	7.17	7.17	7.17	7.17	7.17	7.17	7.17	7.17	7.17	7.17	7.17	7.17	7.16	7.16	7.16	7.16	7.16	7.16	7.15	7.15	7.14	7.13	7.11	7.15	7.19	7.15	7.14	7.15	7.15	7.15	7.14	7.14	7.16	7.17	7.17	7.18	7.16	7.15	7.16	7.17	7.16	7.16	7.17	7.18	7.17	7.15	7.13	7.12	7.12	7.11	7.10	7.10	7.10	7.12	7.12	7.11	7.11	7.13	7.12	7.11	7.13	7.14	7.16	7.19	7.18	7.16	7.18	7.15	7.19	7.12	7.00	7.00	6.72	6.40	6.26	6.19	6.77	7.65	7.28	6.76	6.84	7.00	6.70	6.30	6.59	7.30	7.69	7.46	7.32	7.19	6.96	6.89	6.89	6.87	6.89	6.94	6.97	7.00	7.03	7.14	7.16	7.10	7.39	7.46	7.07	6.99	7.19	7.18	7.15	7.28	7.49	7.74	7.80	7.60	7.29	7.03	7.34	7.83	7.66	7.28	7.00	7.07	7.58	7.37	7.20	7.57	7.57	
7.17	7.17	7.17	7.17	7.17	7.17	7.17	7.17	7.17	7.17	7.17	7.17	7.17	7.16	7.16	7.16	7.16	7.16	7.16	7.16	7.15	7.15	7.14	7.11	7.13	7.19	7.17	7.14	7.15	7.17	7.16	7.16	7.16	7.15	7.17	7.18	7.18	7.18	7.17	7.16	7.16	7.16	7.15	7.16	7.15	7.16	7.16	7.14	7.13	7.13	7.12	7.12	7.11	7.11	7.12	7.12	7.12	7.12	7.13	7.15	7.15	7.15	7.15	7.16	7.16	7.18	7.20	7.22	7.17	7.25	7.27	6.93	6.67	6.66	6.74	6.66	6.35	6.61	7.70	7.74	6.96	6.90	7.10	7.15	6.72	6.13	6.43	7.09	7.37	7.46	7.36	7.21	7.08	7.04	6.95	6.90	6.99	7.07	7.09	7.05	7.26	7.32	7.08	7.36	7.75	7.77	7.62	7.78	8.06	8.21	8.34	8.33	8.19	7.95	7.48	6.98	6.85	6.93	7.15	7.34	7.36	6.91	6.49	7.06	7.44	7.31	7.38	7.38	
7.17	7.17	7.17	7.17	7.17	7.17	7.17	7.17	7.17	7.17	7.17	7.17	7.17	7.17	7.17	7.16	7.16	7.16	7.16	7.16	7.16	7.15	7.14	7.12	7.13	7.19	7.19	7.14	7.14	7.17	7.17	7.16	7.17	7.16	7.17	7.18	7.18	7.18	7.18	7.17	7.17	7.17	7.16	7.16	7.15	7.14	7.15	7.15	7.14	7.13	7.13	7.13	7.13	7.13	7.13	7.12	7.12	7.13	7.13	7.14	7.15	7.17	7.17	7.18	7.18	7.16	7.11	7.07	7.11	7.34	7.70	7.48	6.49	5.66	5.89	6.64	6.69	6.45	7.39	8.20	7.74	7.36	7.22	7.22	7.25	6.78	6.52	6.73	6.96	7.20	7.33	7.24	7.08	7.05	7.01	6.95	6.97	7.09	7.24	7.27	7.53	7.54	6.99	6.84	7.10	7.34	7.22	7.08	7.03	7.05	7.36	7.69	8.14	8.53	8.30	7.26	6.88	7.23	7.20	6.97	7.47	7.23	6.11	6.29	7.20	7.26	6.95	6.95	
7.17	7.17	7.17	7.17	7.17	7.17	7.17	7.17	7.17	7.17	7.17	7.17	7.17	7.17	7.16	7.16	7.16	7.16	7.16	7.16	7.16	7.15	7.15	7.13	7.12	7.17	7.21	7.15	7.13	7.16	7.16	7.16	7.16	7.15	7.16	7.17	7.16	7.17	7.18	7.17	7.17	7.17	7.17	7.17	7.17	7.16	7.15	7.15	7.15	7.14	7.13	7.13	7.13	7.13	7.13	7.12	7.11	7.12	7.14	7.15	7.15	7.16	7.17	7.18	7.19	7.31	7.26	6.93	6.90	7.12	8.19	9.09	8.01	6.19	5.60	6.36	6.71	6.16	6.58	7.49	7.69	7.55	7.40	7.29	7.27	7.11	6.82	6.76	6.85	6.97	7.22	7.27	7.05	6.96	6.99	6.99	6.96	6.98	7.07	7.15	7.56	7.79	7.22	6.67	6.78	6.93	6.64	6.47	6.36	6.29	6.33	6.44	6.86	7.65	8.51	8.07	7.07	7.31	7.69	7.08	7.39	7.93	6.88	6.33	7.25	7.58	7.21	7.21	
7.17	7.17	7.17	7.17	7.17	7.17	7.17	7.17	7.17	7.17	7.17	7.17	7.17	7.17	7.17	7.17	7.16	7.16	7.16	7.16	7.16	7.15	7.15	7.14	7.11	7.15	7.21	7.16	7.13	7.15	7.15	7.16	7.15	7.15	7.15	7.16	7.16	7.16	7.17	7.17	7.17	7.17	7.16	7.16	7.17	7.17	7.15	7.15	7.15	7.14	7.13	7.13	7.13	7.13	7.13	7.13	7.12	7.12	7.14	7.15	7.14	7.15	7.16	7.19	7.14	7.33	7.56	7.07	6.72	6.32	6.93	8.96	9.63	9.02	7.81	7.39	7.29	6.54	6.46	6.87	7.11	7.18	7.17	7.16	7.12	7.02	6.87	6.72	6.69	6.68	6.89	7.22	7.16	6.99	6.97	6.96	6.98	7.00	6.93	6.80	7.13	7.73	7.46	6.82	6.82	7.13	6.90	6.41	6.25	6.43	6.45	6.19	6.25	6.52	7.33	7.86	7.27	7.18	7.64	7.16	6.99	7.73	7.28	6.55	7.14	7.69	7.62	7.62	
7.17	7.17	7.17	7.17	7.17	7.17	7.17	7.17	7.17	7.17	7.17	7.17	7.17	7.17	7.17	7.17	7.16	7.16	7.16	7.16	7.16	7.16	7.15	7.15	7.12	7.13	7.22	7.20	7.14	7.15	7.16	7.17	7.16	7.16	7.15	7.16	7.17	7.17	7.18	7.18	7.17	7.17	7.17	7.16	7.16	7.16	7.15	7.15	7.15	7.14	7.14	7.13	7.12	7.13	7.15	7.13	7.12	7.12	7.13	7.16	7.18	7.19	7.18	7.14	7.05	7.04	7.44	7.34	6.73	5.79	5.33	6.37	7.78	8.67	8.54	8.15	7.79	7.12	6.82	6.88	7.00	7.03	6.99	7.00	7.00	6.91	6.83	6.76	6.68	6.59	6.60	6.87	6.99	6.90	6.85	6.83	6.83	6.90	7.03	6.99	7.12	7.60	7.38	6.94	6.92	7.23	7.59	7.02	6.21	6.37	6.74	6.45	6.22	6.41	6.79	7.28	7.16	7.22	7.65	7.20	6.90	7.43	7.13	6.50	6.88	7.53	7.72	7.72	
7.17	7.17	7.17	7.17	7.17	7.17	7.17	7.17	7.17	7.17	7.17	7.17	7.17	7.17	7.17	7.17	7.16	7.16	7.16	7.16	7.16	7.16	7.15	7.15	7.12	7.11	7.18	7.20	7.16	7.14	7.16	7.18	7.18	7.18	7.16	7.16	7.17	7.16	7.17	7.18	7.18	7.17	7.17	7.16	7.17	7.16	7.15	7.15	7.16	7.15	7.14	7.14	7.13	7.12	7.15	7.14	7.12	7.12	7.12	7.15	7.17	7.23	7.37	7.32	7.21	7.15	7.33	7.61	7.17	6.07	5.55	6.00	6.50	7.02	7.41	7.71	7.68	7.21	7.04	7.06	7.07	7.08	7.04	6.96	6.98	6.94	6.81	6.76	6.70	6.60	6.50	6.56	6.74	6.77	6.67	6.67	6.62	6.54	6.67	6.91	7.31	7.83	7.54	7.02	7.01	7.05	7.67	7.76	6.67	6.38	6.86	6.78	6.29	6.38	6.83	7.18	7.08	7.16	8.03	7.75	6.94	7.37	7.00	6.14	6.51	7.30	7.63	7.63	
7.17	7.17	7.17	7.17	7.17	7.17	7.17	7.17	7.17	7.17	7.17	7.17	7.17	7.17	7.17	7.17	7.17	7.16	7.16	7.16	7.16	7.16	7.16	7.15	7.13	7.11	7.14	7.19	7.17	7.14	7.15	7.16	7.17	7.18	7.17	7.15	7.16	7.16	7.16	7.17	7.18	7.18	7.17	7.16	7.18	7.17	7.15	7.16	7.17	7.17	7.15	7.15	7.14	7.13	7.14	7.14	7.14	7.13	7.11	7.13	7.11	7.11	7.34	7.56	7.54	7.39	7.33	7.75	8.04	7.33	6.53	6.57	6.67	6.71	6.86	7.18	7.49	7.29	7.12	7.13	7.12	7.16	7.18	7.04	6.95	6.89	6.75	6.69	6.60	6.56	6.58	6.55	6.63	6.73	6.62	6.61	6.58	6.35	6.22	6.34	6.94	7.71	7.87	7.31	7.00	7.03	7.44	7.79	7.01	6.55	6.95	7.01	6.42	6.18	6.61	7.16	7.13	6.78	7.70	8.23	7.26	7.58	7.53	6.14	6.20	7.10	7.46	7.46	
7.17	7.17	7.17	7.17	7.17	7.17	7.17	7.17	7.17	7.17	7.17	7.17	7.17	7.17	7.17	7.17	7.17	7.16	7.16	7.16	7.16	7.16	7.16	7.15	7.15	7.13	7.13	7.17	7.18	7.16	7.15	7.15	7.17	7.17	7.16	7.15	7.17	7.17	7.16	7.17	7.18	7.19	7.18	7.17	7.18	7.18	7.16	7.16	7.17	7.18	7.17	7.16	7.15	7.14	7.14	7.13	7.14	7.14	7.15	7.09	6.97	6.99	7.12	7.41	7.88	7.90	7.60	7.84	8.36	8.44	7.82	7.12	6.93	6.98	6.84	6.81	7.01	7.16	7.28	7.27	7.25	7.36	7.38	7.21	7.11	6.97	6.82	6.87	6.73	6.50	6.62	6.78	6.72	6.64	6.56	6.63	6.79	6.55	6.19	6.02	6.28	6.90	7.54	7.66	7.07	7.04	7.58	7.79	7.19	6.93	7.30	7.41	6.96	6.38	6.41	6.95	7.09	6.58	7.03	8.08	7.55	7.58	8.27	7.05	6.23	6.98	7.48	7.48	
7.17	7.17	7.17	7.17	7.17	7.17	7.17	7.17	7.17	7.17	7.17	7.17	7.17	7.17	7.17	7.17	7.17	7.16	7.16	7.16	7.16	7.16	7.16	7.15	7.15	7.14	7.12	7.14	7.16	7.17	7.15	7.14	7.17	7.18	7.16	7.15	7.16	7.17	7.16	7.16	7.18	7.18	7.19	7.18	7.18	7.19	7.17	7.16	7.16	7.18	7.19	7.17	7.15	7.15	7.15	7.13	7.12	7.10	7.25	7.29	6.92	6.92	7.10	7.10	7.62	8.00	7.42	7.07	7.21	7.70	8.19	8.02	7.63	7.63	7.47	7.20	7.04	6.97	7.35	7.47	7.33	7.45	7.69	7.65	7.64	7.72	7.58	7.74	7.77	7.15	6.88	7.18	7.30	7.08	6.72	6.64	6.99	6.92	6.48	6.17	6.18	6.38	6.85	7.57	7.32	7.03	7.64	7.91	7.32	7.25	7.57	7.44	7.21	6.67	6.41	6.78	7.09	6.68	6.70	7.62	7.47	7.12	8.05	7.80	6.67	6.91	7.44	7.44	
7.17	7.17	7.17	7.17	7.17	7.17	7.17	7.17	7.17	7.17	7.17	7.17	7.17	7.17	7.17	7.17	7.17	7.17	7.16	7.16	7.16	7.16	7.16	7.16	7.15	7.15	7.14	7.13	7.14	7.19	7.17	7.14	7.17	7.20	7.17	7.15	7.16	7.18	7.17	7.17	7.18	7.18	7.18	7.17	7.17	7.18	7.18	7.16	7.15	7.16	7.18	7.18	7.16	7.15	7.15	7.14	7.14	7.03	7.17	7.46	7.13	6.86	6.89	6.72	6.89	7.32	7.04	6.69	6.60	6.57	7.06	7.78	7.79	7.77	7.87	7.74	7.52	7.06	7.07	7.30	7.19	7.11	7.37	7.50	7.55	7.84	7.89	7.96	8.31	8.13	7.49	7.30	7.58	7.82	7.49	6.94	7.03	7.20	6.99	6.63	6.47	6.44	6.53	7.12	7.33	7.11	7.45	7.75	7.18	7.14	7.67	7.59	7.23	6.77	6.61	6.86	7.20	6.95	6.66	7.24	7.47	7.12	7.45	7.47	6.79	6.94	7.40	7.40	
7.17	7.17	7.17	7.17	7.17	7.17	7.17	7.17	7.17	7.17	7.17	7.17	7.17	7.17	7.17	7.17	7.17	7.17	7.17	7.16	7.16	7.16	7.16	7.16	7.16	7.15	7.15	7.14	7.13	7.17	7.19	7.16	7.16	7.18	7.17	7.16	7.16	7.17	7.17	7.16	7.16	7.17	7.17	7.17	7.16	7.17	7.18	7.17	7.15	7.15	7.16	7.16	7.15	7.14	7.15	7.13	7.13	7.01	6.94	7.16	7.06	6.73	6.39	6.35	6.89	7.29	7.29	7.19	7.24	6.97	6.65	7.15	7.52	7.46	7.47	7.41	7.35	7.17	7.04	7.17	7.15	7.01	6.95	6.76	6.67	6.82	6.90	6.95	7.24	7.76	7.73	7.21	7.19	7.53	7.65	7.41	7.16	7.23	7.16	6.92	6.73	6.60	6.54	6.71	6.97	6.99	7.25	7.44	6.98	6.75	7.17	7.57	7.51	6.97	6.69	6.89	7.21	7.15	6.80	6.87	7.30	7.42	7.45	7.22	6.51	6.71	7.24	7.24	
7.17	7.17	7.17	7.17	7.17	7.17	7.17	7.17	7.17	7.17	7.17	7.17	7.17	7.17	7.17	7.17	7.17	7.17	7.17	7.16	7.16	7.16	7.16	7.16	7.16	7.16	7.15	7.14	7.12	7.13	7.17	7.16	7.17	7.19	7.17	7.16	7.16	7.16	7.17	7.16	7.15	7.17	7.17	7.17	7.16	7.16	7.18	7.18	7.16	7.16	7.17	7.17	7.16	7.15	7.15	7.13	7.10	7.04	6.99	7.05	7.14	6.99	6.50	6.35	6.82	7.14	7.24	7.21	7.44	7.54	7.09	7.09	7.56	7.77	7.74	7.62	7.38	7.28	7.33	7.33	7.10	7.14	7.17	6.69	6.39	6.41	6.45	6.51	6.58	6.99	7.53	7.27	7.16	7.25	7.17	7.26	7.14	7.21	7.09	6.85	6.84	6.72	6.66	6.69	6.80	6.84	7.01	7.16	6.97	6.81	6.82	7.03	7.25	7.01	6.69	6.80	7.07	7.15	7.04	6.83	7.05	7.49	7.74	7.84	7.01	6.57	6.86	6.86	
7.17	7.17	7.17	7.17	7.17	7.17	7.17	7.17	7.17	7.17	7.17	7.17	7.17	7.17	7.17	7.17	7.17	7.17	7.17	7.17	7.16	7.16	7.16	7.16	7.16	7.16	7.15	7.15	7.14	7.12	7.14	7.14	7.16	7.20	7.20	7.17	7.16	7.15	7.17	7.16	7.16	7.18	7.17	7.17	7.17	7.17	7.17	7.17	7.17	7.17	7.17	7.18	7.17	7.15	7.15	7.14	7.11	7.09	7.08	7.11	7.34	7.43	7.17	6.99	6.92	6.82	6.93	6.91	7.05	7.25	6.84	6.65	7.17	7.61	7.87	8.14	7.96	7.56	7.52	7.65	7.27	7.12	7.14	6.66	6.34	6.26	6.30	6.35	6.28	6.37	6.84	6.90	7.06	7.37	7.23	7.06	6.87	7.08	7.15	6.80	6.73	6.73	6.72	6.75	6.86	6.93	6.99	7.02	6.91	6.81	6.80	6.81	6.87	6.87	6.69	6.70	6.91	7.02	7.11	7.02	7.06	7.26	7.38	7.96	7.86	7.15	6.98	6.98	
7.17	7.17	7.17	7.17	7.17	7.17	7.17	7.17	7.17	7.17	7.17	7.17	7.17	7.17	7.17	7.17	7.17	7.17	7.17	7.17	7.16	7.16	7.16	7.16	7.16	7.16	7.16	7.15	7.15	7.14	7.13	7.13	7.12	7.14	7.18	7.20	7.19	7.16	7.17	7.16	7.15	7.17	7.18	7.17	7.16	7.17	7.17	7.16	7.17	7.17	7.18	7.18	7.17	7.16	7.18	7.17	7.15	7.08	7.01	6.94	6.97	7.02	6.88	7.02	7.11	6.79	6.65	6.76	7.13	7.37	6.89	6.44	6.78	7.05	7.04	7.47	7.75	7.56	7.12	7.17	7.20	7.08	6.99	6.38	6.01	5.92	5.82	5.94	6.05	6.00	6.22	6.44	6.65	7.03	7.30	7.27	6.81	6.64	6.85	6.73	6.56	6.62	6.68	6.75	6.85	6.96	7.02	6.97	6.88	6.74	6.57	6.48	6.40	6.45	6.66	6.72	6.69	6.68	6.82	6.98	7.04	7.08	6.84	7.26	7.70	7.55	7.55	7.55	
7.17	7.17	7.17	7.17	7.17	7.17	7.17	7.17	7.17	7.17	7.17	7.17	7.17	7.17	7.17	7.17	7.17	7.17	7.17	7.17	7.17	7.17	7.16	7.16	7.16	7.16	7.16	7.16	7.15	7.15	7.14	7.14	7.13	7.12	7.13	7.16	7.19	7.18	7.18	7.16	7.15	7.16	7.17	7.17	7.16	7.17	7.17	7.16	7.16	7.17	7.18	7.20	7.19	7.18	7.21	7.21	7.15	7.02	6.88	6.77	6.69	6.61	6.39	6.51	7.00	6.99	6.51	6.50	7.22	7.68	7.41	6.87	6.80	6.95	6.74	6.60	7.04	7.68	7.05	6.53	6.73	6.96	7.33	6.72	5.97	5.97	5.79	5.80	6.27	6.26	6.17	6.32	6.49	6.67	6.97	7.39	7.21	6.78	6.89	6.86	6.63	6.56	6.55	6.71	6.92	7.19	7.45	7.41	7.36	7.43	7.14	6.82	6.53	6.11	6.48	7.02	6.92	6.58	6.44	6.56	6.80	7.05	6.77	6.81	7.03	7.34	7.79	7.79	
7.17	7.17	7.17	7.17	7.17	7.17	7.17	7.17	7.17	7.17	7.17	7.17	7.17	7.17	7.17	7.17	7.17	7.17	7.17	7.17	7.17	7.17	7.16	7.16	7.16	7.16	7.16	7.16	7.16	7.16	7.15	7.15	7.15	7.14	7.13	7.13	7.15	7.16	7.18	7.18	7.16	7.15	7.17	7.17	7.16	7.17	7.17	7.17	7.16	7.15	7.17	7.21	7.20	7.19	7.23	7.39	7.36	6.99	6.86	6.79	6.75	6.89	6.68	6.37	6.70	7.26	6.92	6.39	6.71	7.05	7.16	7.13	7.02	7.19	7.45	7.04	7.46	8.78	8.16	7.22	6.88	6.93	7.95	8.07	7.13	7.05	6.98	6.45	6.52	6.64	6.52	6.55	6.68	6.68	6.83	7.43	7.58	7.14	7.11	7.04	6.85	6.71	6.46	6.49	6.68	6.88	7.30	7.83	8.00	8.19	8.30	8.07	7.70	6.75	6.48	7.30	7.75	7.48	6.89	6.36	6.40	6.91	6.94	6.84	6.83	7.21	7.78	7.78	
7.17	7.17	7.17	7.17	7.17	7.17	7.17	7.17	7.17	7.17	7.17	7.17	7.17	7.17	7.17	7.17	7.17	7.17	7.17	7.17	7.17	7.17	7.17	7.16	7.16	7.16	7.16	7.16	7.16	7.16	7.16	7.16	7.15	7.15	7.15	7.14	7.13	7.14	7.16	7.18	7.19	7.17	7.16	7.17	7.17	7.16	7.16	7.17	7.18	7.16	7.16	7.20	7.19	7.20	7.19	7.47	7.95	7.50	7.03	6.96	6.73	7.06	7.16	6.34	5.98	6.60	6.91	6.76	6.81	6.77	6.80	6.96	7.05	7.43	8.13	8.02	8.26	9.80	9.71	8.45	7.93	7.50	7.89	8.58	8.45	7.96	7.80	7.32	6.55	6.34	6.46	6.47	6.77	6.86	6.75	7.17	7.43	7.09	6.80	6.72	6.80	6.93	6.70	6.39	6.33	6.25	6.01	6.58	7.40	7.65	7.94	8.11	8.12	7.55	6.66	6.72	7.51	7.97	7.75	6.97	6.54	6.83	6.97	6.88	6.87	7.30	7.83	7.83	
7.17	7.17	7.17	7.17	7.17	7.17	7.17	7.17	7.17	7.17	7.17	7.17	7.17	7.17	7.17	7.17	7.17	7.17	7.17	7.17	7.17	7.17	7.17	7.17	7.16	7.16	7.16	7.16	7.16	7.16	7.16	7.16	7.16	7.16	7.15	7.15	7.15	7.14	7.14	7.15	7.18	7.19	7.17	7.16	7.17	7.17	7.15	7.14	7.17	7.18	7.16	7.19	7.20	7.21	7.16	7.22	8.03	8.26	7.61	7.25	6.59	6.72	7.35	6.75	6.05	6.13	6.67	7.07	7.15	7.12	7.07	6.80	6.13	6.07	6.74	6.88	6.91	8.69	9.89	8.95	8.40	8.07	7.45	7.25	7.92	8.19	8.02	8.25	7.51	6.60	6.73	6.62	6.58	6.82	6.71	6.81	7.17	7.43	7.00	6.46	6.44	6.64	6.84	6.84	6.80	6.97	6.45	5.80	6.27	6.88	7.24	7.52	7.56	7.38	6.81	6.39	6.80	7.52	7.71	7.15	6.78	6.97	6.88	6.73	6.74	7.16	7.69	7.69	
7.17	7.17	7.17	7.17	7.17	7.17	7.17	7.17	7.17	7.17	7.17	7.17	7.17	7.17	7.17	7.17	7.17	7.17	7.17	7.17	7.17	7.17	7.17	7.17	7.17	7.16	7.16	7.16	7.16	7.16	7.16	7.16	7.16	7.16	7.16	7.16	7.15	7.15	7.15	7.14	7.15	7.17	7.18	7.16	7.16	7.17	7.17	7.13	7.13	7.15	7.16	7.17	7.18	7.19	7.16	7.09	7.55	8.22	8.19	7.91	7.38	7.32	7.79	7.58	6.80	6.14	6.38	6.98	6.99	7.09	7.36	7.31	6.46	5.63	5.56	5.91	6.01	6.99	8.71	8.60	8.31	8.74	8.74	7.28	6.64	7.38	7.56	7.99	8.23	7.37	6.98	6.96	6.65	6.94	7.21	6.97	6.88	7.50	7.56	6.75	6.46	6.51	6.71	6.92	6.88	6.98	6.91	6.12	5.80	6.24	6.81	7.34	7.33	7.14	6.99	6.75	6.94	7.44	7.73	7.16	6.47	6.87	7.03	6.80	6.83	7.06	7.31	7.31	
7.17	7.17	7.17	7.17	7.17	7.17	7.17	7.17	7.17	7.17	7.17	7.17	7.17	7.17	7.17	7.17	7.17	7.17	7.17	7.17	7.17	7.17	7.17	7.17	7.17	7.17	7.17	7.16	7.16	7.16	7.16	7.16	7.16	7.16	7.16	7.16	7.16	7.16	7.15	7.15	7.14	7.14	7.16	7.18	7.16	7.17	7.17	7.16	7.13	7.14	7.14	7.14	7.12	7.17	7.16	7.36	7.69	7.92	8.16	8.35	8.39	8.18	8.23	8.21	7.51	6.36	6.06	6.70	6.97	7.08	7.42	7.79	7.95	7.31	6.15	5.93	6.19	7.06	8.19	8.37	8.10	8.42	9.54	9.16	7.52	6.75	6.48	6.60	7.16	6.94	6.45	6.50	6.25	6.53	7.45	7.63	7.21	7.42	7.51	6.89	6.48	6.42	6.44	6.44	6.46	6.40	6.54	6.43	5.98	5.86	6.20	7.02	7.39	6.98	6.58	6.76	7.20	7.38	7.82	7.74	6.59	6.48	7.01	7.02	7.19	7.42	7.49	7.49	
7.17	7.17	7.17	7.17	7.17	7.17	7.17	7.17	7.17	7.17	7.17	7.17	7.17	7.17	7.17	7.17	7.17	7.17	7.17	7.17	7.17	7.17	7.17	7.17	7.17	7.17	7.17	7.17	7.16	7.16	7.16	7.16	7.16	7.16	7.16	7.16	7.16	7.16	7.16	7.15	7.15	7.14	7.15	7.17	7.17	7.17	7.17	7.15	7.12	7.13	7.12	7.10	7.05	7.08	6.97	7.29	8.02	8.11	7.70	7.58	7.89	7.88	7.80	8.19	8.11	7.18	6.66	6.73	6.96	7.02	7.16	7.55	8.07	8.59	8.07	7.24	7.05	7.36	7.98	8.23	7.60	7.15	8.36	9.28	8.88	8.09	7.22	7.06	7.28	7.24	6.98	6.61	6.07	5.74	6.53	7.45	7.70	8.09	7.92	6.94	6.12	5.81	6.02	6.63	7.00	6.60	6.59	6.78	6.65	6.25	5.73	6.00	7.01	7.15	6.29	6.43	7.15	7.15	7.62	8.13	7.14	6.41	6.73	7.03	7.14	7.41	7.67	7.67	
7.17	7.17	7.17	7.17	7.17	7.17	7.17	7.17	7.17	7.17	7.17	7.17	7.17	7.17	7.17	7.17	7.17	7.17	7.17	7.17	7.17	7.17	7.17	7.17	7.17	7.17	7.17	7.17	7.17	7.17	7.16	7.16	7.16	7.16	7.16	7.16	7.16	7.16	7.16	7.16	7.16	7.15	7.14	7.14	7.14	7.16	7.16	7.13	7.11	7.10	7.09	7.05	6.99	6.92	6.79	6.96	7.83	8.42	7.70	7.03	7.28	7.57	7.38	7.56	7.79	7.20	7.11	7.14	7.12	7.00	6.68	6.71	6.78	7.36	8.04	8.07	7.88	7.28	7.07	7.54	7.47	6.81	7.40	8.66	8.89	8.99	9.08	9.15	9.13	9.32	9.14	7.96	6.94	6.23	6.12	6.81	7.63	8.56	9.08	8.46	7.35	6.44	5.94	6.54	7.45	6.95	6.43	6.46	6.83	7.06	6.16	5.30	5.80	6.71	6.19	6.12	6.85	6.75	7.34	8.27	7.76	6.86	6.69	7.00	7.10	7.25	7.55	7.55	
7.17	7.17	7.17	7.17	7.17	7.17	7.17	7.17	7.17	7.17	7.17	7.17	7.17	7.17	7.17	7.17	7.17	7.17	7.17	7.17	7.17	7.17	7.17	7.17	7.17	7.17	7.17	7.17	7.17	7.17	7.17	7.17	7.16	7.16	7.16	7.16	7.16	7.16	7.16	7.16	7.16	7.15	7.15	7.14	7.13	7.14	7.15	7.14	7.13	7.09	7.06	7.00	6.93	6.74	6.49	6.54	7.16	8.41	8.53	7.43	7.09	7.52	7.74	7.67	7.31	6.41	6.32	7.11	7.49	7.26	6.73	6.31	6.01	5.52	5.30	5.93	7.15	7.24	6.69	6.97	7.38	6.77	6.51	7.90	8.81	8.71	8.76	9.21	9.10	9.24	10.19	9.95	8.66	7.79	7.13	6.85	7.38	8.30	9.07	9.31	8.94	7.91	6.75	6.62	7.48	7.32	6.35	5.95	6.29	7.21	7.29	6.15	5.42	5.82	5.74	5.81	6.54	6.19	6.37	7.52	7.76	7.13	6.65	6.85	7.00	7.16	7.40	7.40	
7.17	7.17	7.17	7.17	7.17	7.17	7.17	7.17	7.17	7.17	7.17	7.17	7.17	7.17	7.17	7.17	7.17	7.17	7.17	7.17	7.17	7.17	7.17	7.17	7.17	7.17	7.17	7.17	7.17	7.17	7.17	7.17	7.17	7.17	7.16	7.16	7.16	7.16	7.16	7.16	7.16	7.16	7.16	7.15	7.14	7.13	7.13	7.12	7.11	7.09	7.05	6.98	6.88	6.62	6.07	5.75	6.00	7.27	8.90	8.39	7.13	7.17	8.11	8.95	8.40	6.70	5.66	6.24	7.09	7.14	6.87	6.30	5.90	5.46	4.85	4.83	5.99	6.90	6.35	6.68	7.19	6.46	5.32	5.62	7.32	7.23	6.77	7.42	7.41	7.00	8.27	9.68	9.35	8.64	8.03	6.93	6.51	7.58	8.45	8.61	8.93	8.53	7.65	7.50	7.98	8.13	7.10	6.39	6.25	6.64	7.27	7.07	6.32	5.94	5.64	5.45	6.19	6.24	5.89	6.35	6.71	6.55	6.51	6.85	6.94	7.08	7.28	7.28	
7.17	7.17	7.17	7.17	7.17	7.17	7.17	7.17	7.17	7.17	7.17	7.17	7.17	7.17	7.17	7.17	7.17	7.17	7.17	7.17	7.17	7.17	7.17	7.17	7.17	7.17	7.17	7.17	7.17	7.17	7.17	7.17	7.17	7.17	7.17	7.17	7.16	7.16	7.16	7.16	7.16	7.16	7.16	7.16	7.15	7.14	7.13	7.12	7.11	7.09	7.04	6.99	6.87	6.67	6.25	5.82	5.41	5.75	7.82	8.97	8.11	7.10	7.23	8.81	9.61	8.11	6.45	6.16	6.94	7.22	6.97	6.70	6.41	6.53	6.27	5.69	5.98	6.58	6.05	6.59	7.60	7.04	5.48	4.81	6.26	6.33	5.95	6.61	6.83	6.35	6.57	7.80	8.03	7.86	7.87	7.10	6.12	6.62	7.79	8.05	8.33	8.40	7.86	7.63	8.11	8.50	7.96	7.30	7.04	6.93	7.08	7.19	6.86	6.41	5.90	5.36	5.66	6.22	6.17	6.33	6.34	5.92	6.19	6.90	7.21	7.40	7.59	7.59	
7.17	7.17	7.17	7.17	7.17	7.17	7.17	7.17	7.17	7.17	7.17	7.17	7.17	7.17	7.17	7.17	7.17	7.17	7.17	7.17	7.17	7.17	7.17	7.17	7.17	7.17	7.17	7.17	7.17	7.17	7.17	7.17	7.17	7.17	7.17	7.17	7.17	7.17	7.16	7.16	7.16	7.16	7.16	7.16	7.15	7.15	7.14	7.13	7.11	7.09	7.05	7.00	6.91	6.78	6.58	6.35	5.75	5.30	6.18	7.58	7.99	7.32	6.28	6.87	8.99	8.71	7.14	6.61	7.35	7.98	7.69	7.42	7.14	7.39	7.59	7.35	7.02	6.53	6.15	6.55	7.65	7.75	6.01	5.04	6.11	6.47	6.16	6.36	6.70	6.50	6.51	7.24	7.11	7.01	7.45	7.25	6.38	6.28	7.04	7.33	7.50	7.97	7.99	7.74	8.20	8.58	8.52	8.52	8.33	7.93	7.63	7.54	7.24	6.92	6.60	6.11	5.83	5.92	6.07	6.78	6.88	6.00	6.03	6.66	7.00	7.44	7.83	7.83	
7.17	7.17	7.17	7.17	7.17	7.17	7.17	7.17	7.17	7.17	7.17	7.17	7.17	7.17	7.17	7.17	7.17	7.17	7.17	7.17	7.17	7.17	7.17	7.17	7.17	7.17	7.17	7.17	7.17	7.17	7.17	7.17	7.17	7.17	7.17	7.17	7.17	7.17	7.16	7.16	7.16	7.16	7.16	7.16	7.16	7.15	7.14	7.14	7.12	7.10	7.07	7.02	6.95	6.86	6.72	6.56	6.18	5.68	5.68	6.05	6.50	6.82	6.12	5.82	7.70	8.51	7.26	6.55	7.12	7.86	7.88	7.67	6.95	6.84	7.35	7.82	7.86	6.56	6.07	6.71	7.59	7.93	6.48	5.62	6.16	6.37	6.09	6.06	6.25	6.21	6.55	7.37	7.13	6.58	6.89	7.16	6.79	6.62	7.10	6.93	6.26	6.65	7.44	7.71	8.04	8.46	8.50	8.72	9.12	8.99	8.67	8.80	8.66	8.09	7.72	7.47	7.23	6.54	5.79	6.43	7.05	6.26	6.01	6.48	6.71	7.23	7.76	7.76	
7.17	7.17	7.17	7.17	7.17	7.17	7.17	7.17	7.17	7.17	7.17	7.17	7.17	7.17	7.17	7.17	7.17	7.17	7.17	7.17	7.17	7.17	7.17	7.17	7.17	7.17	7.17	7.17	7.17	7.17	7.17	7.17	7.17	7.17	7.17	7.17	7.17	7.17	7.17	7.16	7.16	7.16	7.16	7.16	7.16	7.15	7.15	7.14	7.13	7.11	7.09	7.05	7.00	6.93	6.85	6.72	6.51	6.29	6.16	6.14	6.24	6.35	6.11	5.63	6.42	7.52	7.01	6.08	6.21	6.66	6.71	7.09	6.57	5.97	6.18	6.93	7.70	6.92	5.92	6.22	7.32	7.90	7.38	6.64	6.75	6.78	6.37	6.41	6.36	6.13	6.29	7.05	7.27	6.80	6.69	6.93	6.98	6.84	7.34	7.51	6.59	6.20	6.60	6.95	6.95	7.10	7.16	7.16	7.78	8.37	8.33	8.58	8.98	9.01	8.83	8.69	8.87	8.58	7.57	7.42	7.94	7.54	6.82	6.73	6.72	7.03	7.44	7.44	
7.17	7.17	7.17	7.17	7.17	7.17	7.17	7.17	7.17	7.17	7.17	7.17	7.17	7.17	7.17	7.17	7.17	7.17	7.17	7.17	7.17	7.17	7.17	7.17	7.17	7.17	7.17	7.17	7.17	7.17	7.17	7.17	7.17	7.17	7.17	7.17	7.17	7.17	7.17	7.16	7.16	7.16	7.16	7.16	7.16	7.16	7.15	7.14	7.14	7.12	7.10	7.07	7.03	6.98	6.89	6.77	6.66	6.57	6.48	6.51	6.56	6.38	6.12	5.64	5.82	6.68	6.66	5.72	5.70	6.08	5.96	6.58	6.45	5.69	5.63	6.29	7.30	7.18	5.92	5.60	6.72	7.70	7.75	6.94	7.00	7.33	6.98	6.90	6.73	6.34	6.15	6.68	7.28	7.29	6.99	6.82	6.85	6.78	7.34	8.12	7.89	6.97	6.44	6.50	6.34	6.27	6.41	6.36	6.56	7.15	7.26	7.40	8.10	8.90	9.28	9.24	9.60	10.02	9.67	9.09	9.10	8.81	7.77	7.03	6.75	6.88	7.18	7.18	
