ncols	128
nrows	92
xllcorner	280654.681342
yllcorner	3772085.885776
cellsize	500.000000
NODATA_value	-32768.000000
5.77	5.71	6.22	6.80	6.64	6.20	5.86	6.33	7.15	7.44	7.38	7.28	6.89	6.72	6.26	5.60	5.42	5.37	6.11	6.98	7.28	7.26	7.23	7.35	7.23	7.05	7.30	7.36	6.97	6.78	6.84	6.80	6.73	6.82	6.94	7.06	7.45	7.79	8.15	8.28	8.27	8.08	7.59	7.69	8.07	8.20	7.93	7.38	6.88	7.55	8.07	8.15	8.00	8.06	7.89	7.34	6.85	6.32	6.25	6.39	6.71	7.59	8.00	7.97	8.10	7.90	7.45	6.67	5.58	4.98	5.00	5.33	5.35	5.07	4.72	4.68	4.63	4.42	4.57	4.75	4.86	4.95	6.41	7.55	6.99	6.33	6.58	6.84	6.77	6.32	6.43	6.58	6.38	6.56	6.37	5.82	5.78	5.35	4.75	4.62	4.99	5.22	5.90	6.85	6.19	4.92	4.68	4.44	4.52	4.58	4.77	4.88	4.81	5.24	5.47	5.39	5.47	5.74	6.03	6.13	6.25	6.39	6.39	6.22	6.01	5.92	5.86	5.86	
5.77	5.71	6.22	6.80	6.64	6.20	5.86	6.33	7.15	7.44	7.38	7.28	6.89	6.72	6.26	5.60	5.42	5.37	6.11	6.98	7.28	7.26	7.23	7.35	7.23	7.05	7.30	7.36	6.97	6.78	6.84	6.80	6.73	6.82	6.94	7.06	7.45	7.79	8.15	8.28	8.27	8.08	7.59	7.69	8.07	8.20	7.93	7.38	6.88	7.55	8.07	8.15	8.00	8.06	7.89	7.34	6.85	6.32	6.25	6.39	6.71	7.59	8.00	7.97	8.10	7.90	7.45	6.67	5.58	4.98	5.00	5.33	5.35	5.07	4.72	4.68	4.63	4.42	4.57	4.75	4.86	4.95	6.41	7.55	6.99	6.33	6.58	6.84	6.77	6.32	6.43	6.58	6.38	6.56	6.37	5.82	5.78	5.35	4.75	4.62	4.99	5.22	5.90	6.85	6.19	4.92	4.68	4.44	4.52	4.58	4.77	4.88	4.81	5.24	5.47	5.39	5.47	5.74	6.03	6.13	6.25	6.39	6.39	6.22	6.01	5.92	5.86	5.86	
5.51	4.80	4.72	5.67	6.14	5.94	5.17	5.03	5.84	6.26	6.32	6.56	6.29	6.31	6.34	5.99	5.81	5.50	5.42	5.82	6.23	6.37	6.37	6.55	6.53	6.05	6.11	6.56	6.43	6.17	6.12	6.16	6.03	6.00	6.12	6.15	5.96	5.80	6.57	6.96	7.14	7.41	6.92	6.16	6.31	6.84	6.69	6.79	6.31	6.47	6.72	6.34	6.23	6.79	7.03	7.17	7.08	6.26	6.02	6.04	5.75	6.33	6.97	6.80	6.89	6.99	6.95	6.73	6.13	5.60	5.32	5.47	5.58	5.42	5.09	4.96	4.85	4.67	4.86	5.06	5.22	5.06	5.47	6.76	6.90	6.28	6.41	6.76	7.06	6.88	6.60	6.33	5.54	5.70	6.48	6.42	6.32	5.95	5.30	4.82	4.90	4.99	5.14	6.42	6.80	5.92	5.54	4.98	4.63	4.46	4.50	4.66	4.61	4.88	5.17	5.21	5.32	5.51	5.74	5.70	5.59	5.68	5.80	5.81	5.78	5.86	5.91	5.91	
6.19	5.13	4.18	4.66	5.71	6.18	5.38	4.69	5.16	5.47	5.47	5.99	6.16	6.14	6.34	6.37	6.13	5.54	5.10	5.28	5.55	5.50	5.36	5.53	5.82	5.53	5.31	5.70	5.94	5.91	5.72	5.77	5.76	5.62	5.53	5.30	4.96	4.89	5.41	5.47	5.53	6.17	6.18	5.42	5.73	6.44	5.76	5.83	5.54	5.28	5.57	5.19	5.39	5.84	5.58	6.40	7.51	6.65	5.68	5.81	5.26	5.07	5.71	5.53	5.53	6.15	6.71	6.84	6.60	6.27	5.79	5.61	5.82	5.86	5.63	5.44	5.26	5.18	5.45	5.62	5.31	4.51	4.50	6.10	6.92	6.44	6.15	6.14	6.62	7.05	7.06	6.87	5.65	5.11	6.07	6.63	6.98	6.59	6.07	5.55	4.93	4.53	4.49	5.84	7.00	7.24	7.19	6.64	5.53	4.70	4.56	4.58	4.60	4.73	4.83	4.94	5.13	5.27	5.47	5.51	5.35	5.37	5.51	5.48	5.47	5.65	5.79	5.79	
6.52	6.45	5.71	4.92	5.25	5.85	5.64	5.22	5.31	5.47	5.46	5.58	5.91	5.95	5.82	5.97	5.91	5.46	5.26	5.41	5.54	5.41	5.28	5.37	5.57	5.54	5.34	5.36	5.52	5.71	5.64	5.60	5.70	5.66	5.53	5.29	5.11	5.13	5.31	5.25	5.18	5.63	5.77	5.20	5.59	6.86	6.37	5.81	5.55	5.11	5.31	5.32	5.97	5.99	4.64	4.73	7.06	7.36	5.65	5.53	5.47	5.25	5.67	5.87	5.91	6.13	6.72	7.10	6.92	6.75	6.37	5.80	5.81	5.82	5.55	5.44	5.23	4.87	4.84	5.11	4.61	3.92	4.02	5.15	6.33	6.37	6.14	5.65	5.82	6.68	7.40	7.51	6.81	6.32	6.18	6.25	6.96	6.76	6.28	6.06	5.43	4.39	4.19	5.41	6.13	6.75	7.35	7.78	6.98	5.33	5.16	5.08	5.05	5.30	4.99	4.65	4.99	5.40	5.55	5.41	5.27	5.53	5.87	5.74	5.50	5.53	5.58	5.58	
5.42	6.17	6.36	5.24	4.77	4.96	4.78	4.76	5.02	5.30	5.63	5.47	5.38	5.58	5.54	5.62	5.73	5.47	5.27	5.36	5.53	5.52	5.45	5.54	5.60	5.50	5.36	5.35	5.38	5.45	5.47	5.42	5.44	5.43	5.39	5.26	5.09	4.92	4.99	5.21	5.22	5.62	5.71	4.87	4.84	6.04	6.38	6.25	6.20	5.84	5.40	5.47	6.24	6.44	5.35	3.92	5.06	7.42	6.44	5.14	5.12	5.51	5.84	6.14	6.54	6.25	6.35	7.02	7.22	7.35	7.06	6.39	6.37	6.37	5.94	5.31	4.42	4.16	4.32	4.64	4.69	4.07	3.41	3.66	4.73	5.46	5.98	5.41	5.03	5.54	6.45	6.54	5.92	6.27	6.47	6.51	6.75	6.66	6.64	6.76	6.54	5.25	4.12	4.92	5.73	5.80	6.30	7.66	7.83	5.84	5.07	5.03	5.08	5.81	5.89	5.02	5.10	5.81	6.27	5.78	4.86	5.05	5.63	5.79	5.77	5.68	5.58	5.58	
5.02	5.66	6.35	5.97	5.38	5.01	4.57	4.56	4.87	5.23	5.72	5.94	5.75	5.58	5.62	5.62	5.59	5.50	5.44	5.51	5.59	5.64	5.59	5.63	5.72	5.68	5.57	5.55	5.58	5.60	5.57	5.52	5.49	5.41	5.34	5.25	5.16	4.93	4.66	4.74	4.76	5.18	5.69	5.34	5.25	5.46	5.52	5.64	5.87	6.07	5.60	5.66	6.03	6.25	6.44	5.00	4.16	6.26	7.23	5.61	4.70	5.12	5.07	4.94	5.94	5.95	5.96	6.39	6.61	7.30	7.26	6.63	6.75	7.09	7.29	6.65	5.02	4.77	5.21	5.34	5.04	4.23	3.36	2.95	3.42	4.61	5.62	5.16	4.30	4.33	5.71	5.91	4.97	5.23	5.89	6.59	6.80	6.19	5.84	6.25	6.66	6.31	5.08	4.94	6.09	6.24	6.07	7.29	8.27	7.39	5.92	5.07	4.53	4.98	5.97	5.86	5.58	6.02	6.90	7.11	5.69	5.01	5.39	5.46	5.55	5.54	5.44	5.44	
5.24	5.71	6.30	6.54	6.68	6.22	5.45	5.09	5.05	5.24	5.52	5.92	6.19	6.00	5.93	5.87	5.64	5.56	5.53	5.49	5.44	5.53	5.64	5.69	5.70	5.65	5.61	5.59	5.59	5.56	5.50	5.43	5.37	5.28	5.20	5.09	4.99	4.90	4.74	4.53	4.41	4.56	5.03	5.32	5.50	5.51	5.18	5.08	5.18	5.28	5.31	5.64	5.70	5.69	6.20	5.93	5.04	5.31	6.84	6.32	4.48	4.19	4.30	4.54	5.38	5.13	5.25	5.55	5.72	6.84	7.10	6.20	5.88	6.06	6.57	7.23	6.58	5.76	5.11	5.00	5.20	5.23	4.79	3.72	3.65	4.62	5.82	5.93	4.97	4.42	5.78	6.02	5.36	5.28	5.59	6.15	6.75	6.60	5.55	5.20	5.54	6.01	5.41	4.93	5.91	6.56	6.21	6.63	7.55	7.98	7.86	6.88	5.59	4.74	4.86	5.25	5.29	5.44	6.11	7.23	6.97	5.94	6.09	6.15	5.99	5.78	5.54	5.54	
5.09	5.69	6.23	6.12	6.54	6.79	6.31	5.82	5.53	5.47	5.51	5.64	5.89	5.98	6.00	5.95	5.73	5.62	5.69	5.70	5.50	5.41	5.56	5.72	5.76	5.68	5.67	5.71	5.72	5.63	5.49	5.43	5.34	5.12	5.13	5.19	5.05	5.08	5.30	5.10	4.79	4.64	4.70	5.03	5.23	5.37	5.15	5.04	5.19	5.06	4.99	5.36	5.47	5.56	5.67	5.53	5.46	5.31	5.99	6.25	5.12	4.15	3.67	4.23	5.10	4.84	4.56	4.59	4.73	5.97	6.54	6.15	5.90	5.36	5.16	5.54	5.35	5.22	4.85	4.85	5.43	6.06	6.33	5.54	4.62	4.79	5.83	6.72	6.54	5.60	5.95	6.04	5.84	5.96	5.89	5.81	6.15	7.04	6.77	5.68	5.22	5.61	5.38	4.64	4.97	5.87	6.30	6.71	6.77	6.77	7.67	7.72	6.88	6.15	5.28	4.86	5.01	5.16	5.34	6.26	6.89	6.50	6.39	6.62	6.70	6.66	6.55	6.55	
4.79	5.33	6.16	6.00	5.84	6.09	6.15	6.07	5.86	5.64	5.55	5.55	5.49	5.57	5.76	5.79	5.71	5.64	5.68	5.87	5.81	5.56	5.52	5.68	5.78	5.71	5.68	5.75	5.80	5.64	5.30	5.29	5.43	5.22	5.27	5.51	5.40	5.20	5.33	5.45	5.29	5.11	4.93	4.88	4.94	5.05	4.90	4.68	4.91	5.23	5.05	4.85	5.02	5.32	5.41	5.19	5.14	5.31	5.86	6.11	6.26	5.81	4.06	3.67	4.40	4.81	4.40	4.17	4.46	5.72	5.94	6.09	6.98	7.04	6.51	5.50	5.02	5.39	5.92	6.00	5.43	5.16	5.58	5.45	4.79	4.56	4.99	5.82	6.77	6.51	5.88	5.58	5.35	6.02	6.32	5.64	5.36	6.17	7.23	6.63	5.77	5.77	5.56	4.79	4.65	5.06	5.49	6.21	6.09	5.44	6.34	7.00	6.19	5.92	5.78	5.20	5.25	5.67	5.61	5.86	6.10	5.97	5.81	5.63	5.57	6.27	6.94	6.94	
4.65	5.00	5.99	6.27	5.98	5.84	5.74	5.79	5.80	5.73	5.66	5.63	5.52	5.50	5.61	5.67	5.68	5.67	5.58	5.70	5.85	5.70	5.54	5.63	5.75	5.68	5.65	5.93	6.32	6.28	5.79	5.61	5.74	5.62	5.54	5.56	5.44	5.23	5.09	5.10	5.09	5.11	5.09	4.98	4.96	5.06	4.92	4.54	4.52	5.06	5.35	5.08	4.91	5.08	5.05	5.20	5.62	5.97	6.72	6.99	7.42	8.12	7.13	5.26	4.89	5.44	5.39	5.31	5.39	6.64	6.64	5.36	6.32	7.71	8.50	7.66	6.42	6.04	5.77	5.74	5.47	5.20	5.09	4.93	4.76	4.52	4.48	4.73	5.86	6.50	5.35	5.32	5.31	5.57	6.45	6.03	4.91	4.93	6.51	6.75	5.72	5.23	5.45	5.39	5.08	4.84	4.87	5.78	6.03	4.99	5.51	7.09	6.56	5.43	5.31	5.09	5.06	5.44	5.42	5.61	5.67	5.42	5.52	5.48	5.11	5.49	6.14	6.14	
4.56	4.70	5.50	5.98	5.85	5.73	5.63	5.62	5.66	5.74	5.77	5.73	5.52	5.47	5.54	5.55	5.63	5.74	5.67	5.61	5.72	5.63	5.42	5.53	5.71	5.58	5.40	5.65	6.34	6.84	6.68	6.36	6.12	5.74	5.47	5.40	5.32	5.18	5.12	4.97	4.79	4.96	5.18	5.07	5.03	5.22	5.17	4.72	4.34	4.34	4.78	5.27	5.22	5.09	4.72	4.80	5.48	5.99	6.37	6.65	6.80	7.66	8.74	8.19	7.27	6.99	7.03	6.91	6.00	6.20	7.36	5.77	4.77	5.71	8.01	8.45	6.54	5.47	5.51	5.54	5.52	5.78	5.54	4.97	4.81	4.65	4.58	4.65	5.65	6.60	5.13	4.94	5.69	5.73	6.20	6.36	5.15	4.47	5.67	6.23	5.43	4.92	5.32	6.07	6.17	5.67	5.33	5.88	6.69	5.84	4.86	6.38	7.46	6.61	5.74	5.14	5.04	5.28	5.18	5.28	5.35	5.27	5.46	5.54	5.59	5.65	5.66	5.66	
4.79	4.77	5.26	5.68	5.64	5.64	5.62	5.60	5.64	5.75	5.82	5.93	5.69	5.40	5.50	5.58	5.65	5.79	5.84	5.78	5.85	5.80	5.50	5.61	5.85	5.66	5.38	5.06	5.21	5.93	6.21	6.13	6.05	5.95	5.63	5.42	5.47	5.35	5.44	5.37	4.99	5.10	5.46	5.31	5.15	5.34	5.40	5.16	4.73	4.13	3.93	4.38	4.79	4.94	4.53	4.41	4.62	4.80	4.93	5.09	5.16	5.32	6.57	7.70	7.21	6.26	6.26	6.86	6.10	5.61	7.10	6.79	5.05	4.73	6.70	8.41	7.31	5.59	5.70	5.97	5.50	5.71	5.77	5.18	4.90	4.87	4.79	4.67	5.62	6.76	5.43	4.49	5.31	6.03	6.10	6.30	5.41	4.59	5.73	6.50	5.94	5.42	5.15	5.77	6.53	6.31	5.61	5.39	6.38	6.72	5.28	5.08	6.49	6.78	6.24	5.55	5.47	5.83	5.64	5.68	5.48	5.40	5.81	5.55	5.66	5.87	5.75	5.75	
5.31	4.98	5.02	5.47	5.58	5.63	5.68	5.54	5.50	5.75	5.86	6.09	6.13	5.64	5.46	5.65	5.77	5.81	5.95	5.93	5.94	6.02	5.63	5.52	5.70	5.47	5.38	5.10	4.74	5.08	5.46	5.62	5.87	6.21	5.88	5.38	5.31	5.10	5.32	5.49	5.16	5.21	5.52	5.46	5.33	5.52	5.70	5.84	5.89	5.38	4.76	4.57	4.80	5.01	4.66	4.50	4.79	4.94	4.91	4.90	4.88	4.98	5.45	6.36	6.55	5.55	5.19	5.96	6.04	6.06	6.97	7.00	5.62	4.55	5.69	7.77	7.95	6.48	5.82	6.16	5.93	5.68	5.68	5.31	5.05	5.14	5.13	4.76	5.47	6.77	6.16	4.64	4.78	6.01	6.40	6.87	5.85	4.38	5.14	6.09	5.71	5.12	4.98	5.37	6.01	6.31	5.98	5.57	5.97	6.77	6.57	5.83	5.89	6.18	6.13	5.55	5.34	5.79	5.81	6.17	6.19	5.91	6.56	6.46	5.71	5.53	5.54	5.54	
6.08	5.53	4.97	5.18	5.47	5.61	5.83	5.76	5.48	5.65	5.81	5.95	6.24	6.03	5.63	5.64	5.83	5.79	5.85	5.97	6.01	6.15	5.86	5.50	5.52	5.20	5.03	5.04	4.97	5.11	5.25	5.26	5.72	6.41	6.24	5.91	5.86	5.43	5.45	5.53	5.30	5.59	5.86	5.83	5.87	6.06	6.31	6.57	6.92	7.01	6.68	6.35	6.21	6.01	5.30	4.60	4.80	5.32	5.36	5.01	4.68	4.88	5.21	5.91	6.59	5.89	5.10	4.97	5.01	5.48	6.27	6.97	6.25	4.54	4.72	6.55	7.37	6.97	6.27	6.09	6.16	5.94	5.67	5.35	5.09	5.33	5.75	5.47	5.49	6.58	6.81	5.37	4.87	5.74	6.10	7.12	6.86	4.89	4.49	4.99	4.81	4.40	4.72	5.35	5.51	5.77	5.77	5.39	5.39	5.76	6.25	6.37	6.02	5.88	6.04	5.76	5.49	5.81	5.88	6.06	6.28	5.99	6.44	7.19	6.53	5.77	5.74	5.74	
6.49	5.86	5.10	5.02	5.18	5.35	5.65	5.82	5.55	5.53	5.61	5.65	5.84	5.82	5.60	5.60	5.85	5.91	5.82	5.80	5.98	6.30	6.34	6.26	6.30	5.98	5.49	5.00	4.98	5.25	5.25	4.98	5.50	6.58	6.83	7.08	7.23	6.97	6.83	6.74	6.52	6.68	6.81	6.66	6.70	6.63	6.52	6.50	6.46	6.63	6.35	5.97	5.98	5.94	5.29	4.54	4.55	5.18	5.58	5.11	4.26	4.23	4.62	5.24	6.09	6.02	5.62	4.87	4.54	4.83	4.91	5.89	6.57	5.35	4.55	5.43	6.25	6.32	6.14	5.85	5.93	5.99	5.72	5.38	4.96	4.97	5.69	5.96	5.56	6.09	6.90	6.15	5.27	5.34	5.43	6.39	7.26	6.55	5.90	5.73	4.97	4.19	4.47	5.39	5.40	5.30	5.53	5.32	5.22	5.26	5.48	5.93	5.92	5.69	5.89	6.13	6.02	5.92	5.83	5.87	5.79	5.32	5.55	6.74	7.17	6.62	6.29	6.29	
6.85	5.86	4.91	4.81	4.79	4.93	5.25	5.53	5.47	5.47	5.52	5.57	5.61	5.53	5.48	5.58	5.85	6.01	5.95	5.77	5.91	6.33	6.44	6.48	6.83	7.14	7.03	6.11	5.63	5.87	5.94	5.78	6.10	6.78	6.83	6.98	7.18	7.06	7.26	7.24	6.99	7.03	6.90	6.52	6.52	6.33	5.87	5.79	5.57	5.80	5.80	5.54	5.77	5.83	5.23	4.57	4.43	4.97	5.63	5.37	4.76	4.72	4.92	5.22	5.57	5.89	6.30	5.63	4.95	4.89	4.72	5.32	6.15	6.21	5.45	5.17	5.67	5.91	5.96	5.78	5.76	5.84	5.67	5.41	4.94	4.52	4.85	5.59	5.41	5.45	6.19	6.17	5.72	5.57	5.56	5.99	6.98	7.27	7.11	7.04	6.18	4.76	4.58	5.58	5.66	5.35	5.52	5.55	5.44	5.40	5.52	5.87	6.06	5.86	5.61	5.59	5.63	5.45	5.25	5.53	5.61	5.16	5.26	5.64	6.25	6.73	6.65	6.65	
7.29	6.58	5.61	5.23	4.99	4.89	5.16	5.40	5.43	5.51	5.61	5.65	5.51	5.36	5.38	5.45	5.62	5.82	5.87	5.80	5.74	5.92	6.06	5.97	6.23	6.88	7.58	7.66	7.34	7.21	7.09	6.73	6.34	6.26	5.94	6.02	6.40	6.08	6.20	6.30	5.85	6.30	6.42	5.86	5.90	5.93	5.56	5.46	5.35	5.63	5.80	5.56	5.98	6.25	5.63	4.75	4.22	4.63	5.52	5.47	5.23	5.35	5.57	5.67	5.45	5.50	6.30	6.31	5.75	5.30	4.98	5.49	5.74	6.11	6.20	5.74	5.69	5.77	5.86	5.75	5.69	5.70	5.61	5.44	5.12	4.69	4.60	5.10	5.28	5.41	5.78	5.94	6.02	5.92	5.82	5.72	6.04	6.47	6.57	6.73	6.61	5.50	4.87	5.51	5.69	5.51	5.47	5.53	5.49	5.37	5.32	5.45	5.69	5.65	5.50	5.43	5.47	5.35	5.09	5.26	5.42	5.13	5.32	5.35	5.46	6.31	6.61	6.61	
6.83	6.80	6.61	6.28	6.01	5.58	5.45	5.62	5.56	5.57	5.80	5.89	5.47	5.14	5.31	5.48	5.56	5.63	5.67	5.65	5.58	5.66	5.87	5.92	5.84	5.88	6.15	6.49	6.43	6.30	6.08	5.77	5.70	5.63	5.33	5.24	5.58	5.24	5.15	5.59	5.34	5.46	5.79	5.57	5.64	5.98	5.90	5.59	5.29	5.44	5.78	5.47	5.71	6.24	5.96	5.23	4.38	4.47	5.29	5.53	5.53	5.57	5.62	5.76	5.71	5.46	5.84	6.34	6.29	5.74	5.03	5.37	5.71	5.68	5.90	5.94	5.87	5.76	5.75	5.72	5.66	5.61	5.56	5.48	5.29	5.07	4.92	5.00	5.16	5.54	5.95	5.95	6.00	5.69	5.46	5.62	5.51	5.89	6.20	6.14	6.22	5.66	5.17	5.38	5.53	5.55	5.54	5.55	5.53	5.46	5.30	5.19	5.25	5.30	5.33	5.35	5.40	5.35	5.19	5.12	5.07	4.84	5.13	5.49	5.51	5.97	6.30	6.30	
6.14	6.09	6.18	6.19	6.18	5.97	5.61	5.65	5.64	5.55	5.88	6.27	5.77	5.06	5.19	5.53	5.63	5.60	5.68	5.74	5.69	5.78	5.77	5.73	5.64	5.59	5.56	5.48	5.32	5.36	5.35	5.39	5.65	5.73	5.70	5.51	5.37	5.07	4.78	5.22	5.59	5.36	5.53	5.61	5.51	5.92	6.25	6.02	5.48	5.30	5.58	5.41	5.41	5.98	6.08	5.79	5.09	4.59	5.01	5.36	5.54	5.87	5.68	5.40	5.69	5.61	5.43	5.95	6.33	6.16	5.47	5.29	5.78	5.79	5.64	5.72	5.86	5.87	5.81	5.76	5.70	5.64	5.59	5.53	5.41	5.28	5.20	5.09	4.91	4.97	5.48	5.71	5.90	5.71	5.36	5.62	5.49	5.69	6.08	6.07	6.00	5.70	5.47	5.45	5.51	5.53	5.53	5.55	5.56	5.50	5.43	5.32	5.23	5.19	5.20	5.20	5.19	5.19	5.14	5.07	5.01	4.85	4.82	5.11	5.37	5.65	5.85	5.85	
6.13	5.75	5.36	5.39	5.49	5.55	5.46	5.51	5.57	5.46	5.60	6.18	6.04	5.15	5.18	5.57	5.72	5.69	5.77	5.95	5.98	5.84	5.41	5.23	5.28	5.41	5.52	5.72	5.70	5.55	5.46	5.54	5.66	5.51	5.62	5.95	5.74	5.31	4.92	5.07	5.79	5.69	5.61	5.80	5.59	5.66	6.12	6.27	5.85	5.53	5.53	5.41	5.30	5.63	5.70	5.56	5.55	4.91	4.65	4.99	5.21	5.74	5.84	5.44	5.62	5.67	5.17	5.47	6.06	6.24	5.87	5.39	5.58	5.83	5.74	5.67	5.72	5.75	5.77	5.76	5.71	5.66	5.61	5.55	5.46	5.38	5.31	5.21	4.97	4.71	4.89	5.21	5.46	5.53	5.38	5.45	5.38	5.43	5.67	5.82	5.81	5.68	5.58	5.54	5.55	5.56	5.54	5.54	5.56	5.54	5.47	5.38	5.24	5.11	5.11	5.12	5.09	5.13	5.09	5.00	4.93	4.94	5.04	5.04	4.99	5.14	5.28	5.28	
6.47	6.00	5.31	5.14	5.29	5.33	5.27	5.39	5.45	5.46	5.51	5.89	6.02	5.33	5.21	5.49	5.70	5.80	5.69	5.63	5.77	5.95	5.42	4.94	5.18	5.37	5.26	5.35	5.60	5.68	5.54	5.44	5.48	5.28	5.15	5.76	6.06	5.68	5.24	5.10	5.65	5.72	5.34	5.49	5.63	5.60	5.80	6.07	6.06	5.79	5.74	5.75	5.58	5.60	5.50	5.26	5.46	5.25	4.67	4.78	5.22	5.48	5.41	5.45	5.75	5.87	5.27	5.11	5.68	6.01	5.97	5.68	5.56	5.66	5.72	5.75	5.77	5.72	5.71	5.73	5.69	5.67	5.64	5.59	5.52	5.45	5.38	5.32	5.20	4.99	4.93	5.03	5.14	5.19	5.23	5.32	5.37	5.39	5.47	5.57	5.61	5.59	5.54	5.51	5.51	5.50	5.48	5.45	5.45	5.50	5.59	5.71	5.64	5.45	5.45	5.36	5.25	5.33	5.28	5.13	5.01	4.95	5.42	5.87	5.43	4.89	4.77	4.77	
6.81	6.40	5.83	5.57	5.60	5.60	5.34	5.30	5.32	5.41	5.64	5.93	5.95	5.53	5.42	5.38	5.43	5.59	5.52	5.58	5.72	6.13	5.89	5.04	5.16	5.46	5.46	5.32	5.27	5.61	5.82	5.92	5.81	5.43	5.01	5.32	5.81	5.65	5.35	5.16	5.59	5.93	5.47	5.34	5.56	5.77	5.70	5.70	5.98	5.70	5.48	5.64	5.89	5.83	5.58	5.45	5.50	5.44	4.90	4.79	5.39	5.82	5.33	5.21	5.73	6.08	5.87	5.46	5.59	5.85	5.92	5.85	5.75	5.71	5.68	5.74	5.85	5.81	5.73	5.70	5.68	5.66	5.64	5.62	5.57	5.53	5.47	5.42	5.36	5.29	5.23	5.23	5.24	5.24	5.25	5.29	5.39	5.46	5.47	5.45	5.40	5.31	5.32	5.40	5.44	5.47	5.47	5.45	5.42	5.45	5.41	5.63	5.79	5.67	5.80	5.76	5.58	5.63	5.59	5.35	5.23	4.94	5.06	6.02	6.43	5.48	4.69	4.69	
6.78	6.46	5.97	5.73	5.58	5.38	5.25	5.20	5.12	5.08	5.38	5.96	5.84	5.33	5.62	5.72	5.39	5.43	5.35	5.54	5.71	5.97	6.23	5.48	5.12	5.34	5.54	5.57	5.39	5.46	5.67	5.96	6.04	5.63	5.06	5.09	5.48	5.50	5.35	5.14	5.56	6.08	5.72	5.48	5.54	5.80	5.73	5.68	6.08	5.92	5.53	5.54	5.95	5.90	5.46	5.32	5.53	5.60	5.06	4.83	5.25	6.00	5.76	5.17	5.47	5.77	5.80	5.69	5.65	5.78	5.83	5.83	5.83	5.80	5.69	5.67	5.75	5.77	5.74	5.70	5.67	5.65	5.65	5.65	5.61	5.57	5.53	5.50	5.46	5.44	5.38	5.31	5.32	5.34	5.35	5.37	5.39	5.51	5.60	5.48	5.40	5.12	5.06	5.36	5.54	5.64	5.49	5.47	5.57	5.62	5.36	5.15	5.31	5.14	5.12	5.35	5.31	5.43	5.63	5.30	5.01	4.65	4.43	5.04	6.14	6.12	5.52	5.52	
6.67	6.27	5.57	5.54	5.67	5.13	4.87	4.89	4.81	4.64	4.74	5.59	5.86	5.13	5.25	5.95	5.70	5.36	5.35	5.55	5.58	5.48	6.08	6.00	5.42	5.49	5.59	5.51	5.50	5.56	5.64	5.86	6.06	5.73	5.19	5.02	5.17	5.33	5.34	5.13	5.38	5.97	5.79	5.53	5.72	5.81	5.43	5.47	6.04	6.04	5.66	5.66	6.03	5.94	5.55	5.31	5.48	5.72	5.29	4.87	4.95	5.61	5.83	5.35	5.35	5.50	5.50	5.54	5.57	5.67	5.71	5.70	5.76	5.79	5.69	5.63	5.66	5.69	5.70	5.69	5.67	5.66	5.66	5.67	5.65	5.60	5.57	5.56	5.54	5.57	5.56	5.37	5.28	5.35	5.40	5.54	5.60	5.57	5.88	6.04	5.87	5.33	5.02	5.28	5.63	5.97	5.66	5.38	5.52	5.82	5.91	5.52	5.71	5.67	5.06	5.08	5.11	5.14	5.47	5.50	5.13	4.56	4.21	4.45	5.14	5.71	5.85	5.85	
6.85	6.72	5.92	5.66	6.06	5.59	5.14	4.96	4.76	4.46	4.26	4.80	5.33	5.05	4.78	5.58	5.88	5.12	5.09	5.73	5.87	5.42	5.78	6.13	5.70	5.62	5.70	5.48	5.26	5.48	5.71	5.94	6.33	6.08	5.45	5.16	5.07	5.09	5.13	5.19	5.34	5.67	5.74	5.51	5.93	6.14	5.43	5.18	5.67	5.87	5.57	5.68	6.15	6.10	5.70	5.42	5.52	5.80	5.53	5.09	4.99	5.36	5.64	5.48	5.42	5.50	5.53	5.54	5.53	5.57	5.63	5.60	5.64	5.72	5.69	5.66	5.68	5.69	5.69	5.67	5.64	5.62	5.64	5.71	5.70	5.64	5.63	5.61	5.53	5.62	5.85	5.72	5.31	5.23	5.25	5.35	5.75	5.68	5.67	6.32	6.34	5.46	5.05	5.29	5.69	6.13	5.89	5.36	5.28	5.69	6.12	5.93	6.18	6.69	6.37	5.89	5.62	5.63	5.66	5.72	5.60	5.03	4.40	4.23	4.72	5.16	5.26	5.26	
6.30	6.81	6.80	6.49	6.83	6.55	6.03	5.60	5.14	4.67	4.26	4.33	4.48	4.85	5.02	5.52	6.13	5.29	4.95	5.64	5.92	5.48	5.59	5.95	5.75	5.67	5.84	5.82	5.37	5.28	5.39	5.50	6.04	6.39	6.05	5.55	5.44	5.43	5.10	5.20	5.50	5.51	5.54	5.36	5.82	6.33	5.86	5.43	5.55	5.80	5.54	5.53	6.06	6.23	5.86	5.44	5.44	5.86	5.86	5.44	5.28	5.39	5.52	5.51	5.49	5.51	5.52	5.54	5.52	5.50	5.54	5.55	5.56	5.63	5.66	5.65	5.65	5.64	5.65	5.64	5.60	5.56	5.54	5.57	5.62	5.61	5.67	5.77	5.62	5.47	5.75	6.03	5.65	5.17	5.09	4.92	5.37	5.67	5.24	6.07	6.78	5.84	5.05	5.25	6.04	6.60	6.47	5.95	5.60	5.76	6.04	5.97	5.99	6.58	7.27	7.28	6.66	6.51	6.41	6.05	5.70	5.19	4.75	4.32	4.77	5.17	4.97	4.97	
5.66	6.12	6.65	7.12	7.83	7.92	7.33	6.46	5.58	5.13	4.67	4.35	3.96	4.07	4.75	5.55	6.42	5.95	5.43	5.80	6.06	5.60	5.42	5.79	5.74	5.70	5.89	6.15	6.05	5.69	5.57	5.38	5.40	5.93	6.05	5.59	5.30	5.44	5.16	5.11	5.58	5.58	5.41	5.23	5.52	6.14	6.04	5.55	5.39	5.73	5.68	5.49	5.86	6.14	6.05	5.69	5.46	5.74	5.89	5.65	5.53	5.55	5.60	5.55	5.51	5.52	5.52	5.54	5.55	5.50	5.51	5.54	5.55	5.58	5.61	5.63	5.64	5.64	5.56	5.49	5.46	5.52	5.53	5.49	5.56	5.60	5.74	5.89	5.85	5.57	5.43	5.82	5.90	5.26	4.98	4.65	4.82	5.55	5.12	5.51	6.79	6.63	5.47	5.07	5.72	6.64	7.10	6.96	6.62	6.64	6.61	6.46	6.39	6.22	6.71	7.43	7.33	7.22	7.21	7.05	6.48	5.45	4.95	4.55	4.70	5.07	4.95	4.95	
5.45	5.97	6.05	5.99	7.05	7.99	8.36	7.98	6.93	6.45	6.00	5.33	4.63	3.84	3.84	4.60	5.83	5.94	5.68	5.87	6.30	6.11	5.53	5.63	5.66	5.71	5.77	5.94	6.32	6.39	6.50	6.18	5.57	5.72	5.81	5.63	5.43	5.37	5.19	5.06	5.50	5.66	5.39	5.27	5.38	5.92	6.14	5.67	5.24	5.42	5.68	5.65	5.87	5.98	5.98	5.86	5.59	5.65	5.74	5.68	5.64	5.62	5.64	5.62	5.53	5.47	5.44	5.42	5.42	5.40	5.38	5.42	5.48	5.54	5.59	5.59	5.56	5.67	5.65	5.41	5.31	5.43	5.70	5.67	5.44	5.42	5.87	6.11	6.15	6.19	5.95	6.00	6.27	6.06	5.78	5.55	5.35	6.14	6.08	5.51	6.28	6.94	6.45	5.84	5.60	5.89	6.45	6.76	6.69	6.81	6.80	6.33	6.19	5.88	5.93	6.53	6.79	7.21	7.56	7.78	7.89	6.86	5.57	4.95	4.75	4.89	4.95	4.95	
4.64	5.53	5.73	4.98	5.34	6.23	7.29	8.09	8.04	7.82	7.37	6.90	6.42	5.23	4.29	4.29	5.10	5.53	5.47	5.39	5.78	6.08	5.68	5.56	5.55	5.61	5.70	5.55	5.71	5.92	6.43	6.79	6.28	6.10	5.98	5.69	5.65	5.52	5.22	5.00	5.39	5.79	5.54	5.36	5.40	5.81	6.20	6.01	5.60	5.28	5.29	5.52	5.90	5.93	5.82	5.80	5.68	5.67	5.69	5.68	5.66	5.65	5.67	5.70	5.61	5.44	5.42	5.40	5.31	5.31	5.21	5.17	5.28	5.39	5.62	5.71	5.52	5.73	6.01	5.79	5.36	4.87	5.13	5.69	5.33	5.00	5.71	6.49	6.76	6.92	7.14	7.16	6.98	6.90	6.90	6.83	6.48	6.55	6.86	6.47	6.33	6.61	6.52	6.30	5.98	5.66	5.66	5.81	5.74	5.88	6.27	6.03	5.64	5.36	5.42	5.76	5.81	6.13	6.71	7.10	7.83	8.01	6.84	5.80	5.39	5.18	5.12	5.12	
4.31	5.02	5.57	5.23	5.25	5.57	6.00	6.39	6.80	7.42	7.07	6.25	6.43	6.12	5.20	4.80	5.03	5.48	5.52	5.29	5.38	5.61	5.40	5.35	5.54	5.59	5.84	5.76	5.57	5.64	5.97	6.64	6.70	6.55	6.40	5.91	5.72	5.71	5.48	5.10	5.16	5.75	5.81	5.45	5.42	5.79	6.10	6.09	6.06	5.80	5.37	5.32	5.69	5.77	5.70	5.73	5.74	5.72	5.71	5.70	5.68	5.66	5.68	5.81	5.89	5.65	5.58	5.56	5.36	5.39	5.16	4.96	5.14	5.15	5.48	5.99	5.74	5.66	6.11	6.39	6.19	5.20	4.93	5.90	6.04	5.26	5.22	5.90	6.38	6.41	6.61	7.03	6.69	6.17	6.05	6.08	5.95	5.83	6.11	6.24	6.17	6.19	6.09	5.99	6.03	5.87	5.65	5.52	5.43	5.57	5.87	5.98	5.66	5.17	5.09	5.25	5.34	5.36	5.74	6.22	6.72	7.73	7.82	6.96	6.46	5.92	5.46	5.46	
4.57	5.05	5.62	5.77	5.95	6.32	6.43	5.65	5.41	6.62	6.94	5.72	5.58	6.04	5.59	5.06	5.04	5.50	5.87	5.88	5.95	5.94	5.57	5.21	5.36	5.61	5.93	6.13	5.93	5.78	5.88	6.16	6.27	6.54	6.72	6.24	5.89	5.83	5.71	5.44	5.02	5.27	5.84	5.59	5.33	5.76	6.00	5.91	6.00	6.06	5.78	5.54	5.65	5.72	5.70	5.73	5.76	5.75	5.73	5.70	5.69	5.68	5.66	5.71	5.98	5.83	5.63	5.72	5.57	5.59	5.37	5.10	5.41	5.26	5.01	5.97	6.28	5.70	5.78	6.45	6.97	6.67	6.06	5.94	6.21	5.72	4.99	5.00	5.29	5.33	5.50	6.20	6.37	5.92	5.67	5.69	5.61	5.59	5.66	5.66	5.66	5.73	5.79	5.75	5.76	5.66	5.59	5.40	5.34	5.59	5.78	5.95	5.90	5.54	5.29	5.13	5.19	5.16	5.32	5.74	5.84	6.47	7.21	6.96	6.65	6.55	6.31	6.31	
4.92	5.28	5.77	5.68	5.43	5.92	6.95	6.30	5.29	6.26	7.23	6.74	6.07	5.90	5.64	5.19	5.07	5.40	5.84	6.01	6.15	6.23	6.02	5.48	5.03	5.08	5.39	5.81	5.97	5.77	5.86	6.06	5.71	5.90	6.62	6.46	5.91	5.68	5.64	5.75	5.46	5.00	5.51	5.76	5.24	5.55	5.91	5.78	5.72	5.79	5.83	5.77	5.76	5.78	5.77	5.78	5.81	5.81	5.78	5.69	5.63	5.62	5.53	5.38	5.73	5.86	5.39	5.38	5.57	5.64	5.36	4.78	5.25	5.65	4.99	5.54	6.66	6.47	5.82	5.88	6.29	6.47	6.33	5.82	5.71	5.62	5.23	5.16	5.30	5.30	5.55	5.96	6.21	6.24	5.88	5.72	5.66	5.67	5.74	5.66	5.47	5.39	5.48	5.70	5.92	5.86	5.90	5.78	5.57	5.66	5.92	6.05	5.93	5.66	5.44	5.20	5.07	5.08	5.11	5.30	5.31	5.47	5.94	6.00	5.86	6.35	6.87	6.87	
4.71	5.06	5.69	5.53	5.03	5.24	6.34	6.51	5.55	5.81	6.59	6.65	6.63	6.30	5.92	5.42	5.07	5.27	5.63	5.83	5.79	5.79	5.90	5.82	5.46	5.17	5.06	5.28	5.80	5.94	6.02	6.34	6.00	5.63	6.24	6.78	6.45	5.82	5.57	5.76	5.98	5.40	5.16	5.72	5.51	5.35	5.66	5.70	5.64	5.66	5.73	5.77	5.79	5.80	5.80	5.82	5.92	5.93	5.76	5.65	5.67	5.73	5.70	5.30	5.47	6.18	5.91	5.59	5.92	6.26	6.10	5.11	5.17	5.93	5.56	5.13	5.93	6.64	6.22	5.76	5.71	6.01	6.35	6.20	6.01	5.82	5.61	5.61	5.72	5.67	5.75	5.90	5.90	6.05	5.99	5.87	5.83	5.79	5.96	6.14	6.02	5.86	5.72	5.86	6.34	6.62	6.68	6.66	6.51	6.20	6.32	6.52	6.36	5.98	5.71	5.47	5.07	5.01	5.09	5.17	5.20	5.29	5.47	5.66	5.56	5.96	6.69	6.69	
4.18	4.52	5.51	5.82	5.61	5.78	6.15	6.02	5.50	5.58	5.76	5.89	6.32	6.27	6.16	5.85	5.26	5.30	5.68	6.07	6.16	5.95	5.93	5.99	5.97	5.88	5.48	5.25	5.57	5.76	5.87	6.14	6.13	5.73	5.77	6.49	6.76	6.15	5.60	5.47	5.85	5.77	5.07	5.31	5.67	5.50	5.57	5.69	5.66	5.67	5.71	5.74	5.78	5.81	5.82	5.81	6.00	6.37	6.17	5.82	5.99	6.16	6.41	6.12	5.86	6.72	7.14	7.03	6.98	7.00	7.13	6.63	5.85	5.79	5.78	5.12	4.91	5.65	6.10	6.02	5.71	5.82	6.26	6.25	6.26	6.21	5.91	5.68	5.57	5.58	5.66	5.81	5.88	5.79	5.74	5.98	6.24	6.15	6.13	6.38	6.42	6.36	6.15	5.79	5.71	5.98	6.23	6.35	6.57	6.50	6.45	6.75	6.91	6.74	6.55	6.30	5.66	5.14	5.07	5.17	5.17	5.27	5.40	5.50	5.49	5.84	6.35	6.35	
4.36	4.38	4.83	5.39	5.71	6.13	6.69	6.23	5.44	5.70	5.58	5.57	6.11	5.93	5.79	5.97	5.62	5.40	5.69	6.10	6.40	6.29	5.94	5.81	5.69	5.71	5.52	5.31	5.56	5.53	5.74	6.03	5.88	5.62	5.56	6.05	6.55	6.36	5.94	5.43	5.57	6.02	5.47	5.22	5.59	5.65	5.67	5.74	5.70	5.68	5.70	5.72	5.76	5.80	5.81	5.77	5.78	6.32	6.58	6.01	6.10	6.33	6.69	6.94	6.56	6.54	6.70	6.64	6.54	6.37	6.33	6.38	5.89	5.41	5.57	5.56	5.17	5.22	5.63	5.92	5.76	5.63	5.94	6.06	5.95	5.97	5.88	5.69	5.55	5.53	5.62	5.69	5.87	5.85	5.43	5.36	5.82	5.91	5.85	5.98	5.98	5.93	5.89	5.68	5.40	5.31	5.45	5.55	5.69	6.01	6.06	6.25	6.57	6.57	6.69	6.79	6.63	5.91	5.32	5.27	5.13	5.10	5.36	5.63	5.66	5.82	6.03	6.03	
4.88	4.77	4.59	4.71	5.24	5.77	6.76	6.81	5.73	5.80	5.69	5.39	5.90	6.00	5.59	5.61	5.64	5.45	5.56	5.80	6.00	6.19	5.81	5.63	5.81	5.66	5.38	5.25	5.62	5.58	5.67	6.22	6.09	5.66	5.53	5.78	6.16	6.28	6.33	5.87	5.44	5.93	5.90	5.51	5.60	5.66	5.69	5.75	5.74	5.72	5.72	5.73	5.75	5.85	5.89	5.87	5.73	5.93	6.53	6.36	6.39	6.48	6.42	6.44	5.97	5.73	5.95	6.04	5.87	6.06	6.13	6.08	6.10	5.69	5.54	5.81	5.84	5.58	5.59	5.68	5.66	5.61	5.65	5.84	5.76	5.66	5.72	5.70	5.63	5.60	5.64	5.65	5.70	5.86	5.57	5.18	5.35	5.44	5.49	5.70	5.77	5.60	5.54	5.69	5.62	5.42	5.41	5.42	5.29	5.49	5.61	5.75	6.11	6.11	6.24	6.41	6.66	6.40	5.90	5.85	5.77	5.37	5.28	5.75	6.01	6.01	5.96	5.96	
5.24	5.20	4.93	4.67	4.77	5.20	6.54	7.24	6.23	5.76	5.75	5.40	5.39	5.66	5.61	5.49	5.49	5.46	5.52	5.61	5.55	5.96	5.87	5.46	5.99	6.10	5.89	5.58	5.62	5.67	5.55	6.04	6.10	5.82	5.68	5.58	5.69	5.99	6.20	6.23	5.73	5.59	5.85	5.72	5.66	5.70	5.70	5.73	5.75	5.73	5.71	5.71	5.68	5.87	6.08	5.95	5.85	6.09	6.39	6.31	6.34	6.29	6.14	6.07	5.58	5.44	5.84	6.06	5.88	6.01	6.26	6.12	6.20	6.18	5.86	5.76	5.92	5.79	5.67	5.67	5.54	5.56	5.56	5.68	5.76	5.66	5.66	5.67	5.61	5.57	5.65	5.71	5.67	5.71	5.63	5.39	5.29	5.24	5.26	5.44	5.63	5.56	5.41	5.56	5.66	5.52	5.45	5.43	5.31	5.42	5.50	5.50	5.85	5.94	5.95	6.28	6.57	6.48	6.28	6.22	6.36	6.05	5.46	5.60	5.93	6.20	6.37	6.37	
5.39	5.34	5.17	4.99	4.70	4.59	5.73	7.24	6.98	6.00	5.76	5.69	5.48	5.33	5.38	5.51	5.45	5.43	5.67	5.84	5.44	5.64	5.77	5.33	5.67	5.83	5.93	5.85	5.56	5.46	5.54	5.94	5.84	5.82	6.07	5.87	5.61	5.86	5.92	6.12	6.22	5.82	5.77	5.81	5.73	5.73	5.73	5.74	5.75	5.75	5.71	5.71	5.56	5.63	6.05	5.89	5.40	5.47	5.67	5.31	5.29	5.56	5.74	6.22	5.90	5.43	5.73	5.92	5.91	5.88	6.01	5.93	5.80	5.90	5.81	5.65	5.73	5.76	5.66	5.71	5.59	5.53	5.64	5.65	5.69	5.68	5.61	5.65	5.65	5.58	5.60	5.64	5.67	5.66	5.57	5.56	5.42	5.26	5.24	5.35	5.54	5.52	5.41	5.42	5.56	5.61	5.55	5.48	5.34	5.42	5.52	5.46	5.71	5.86	5.69	6.06	6.54	6.52	6.22	5.87	5.97	6.06	5.69	5.61	5.63	5.80	6.12	6.12	
5.49	5.45	5.34	5.24	4.94	4.53	4.93	6.44	7.45	7.03	6.33	6.09	6.09	5.76	5.42	5.48	5.50	5.43	5.75	6.25	5.94	5.69	5.60	5.33	5.59	5.63	5.61	5.98	5.81	5.26	5.48	6.12	5.96	5.72	6.06	6.02	5.67	5.79	5.86	5.86	6.08	5.99	5.84	5.83	5.78	5.76	5.75	5.75	5.77	5.78	5.75	5.65	5.30	5.20	5.81	6.16	5.74	5.23	5.33	5.31	5.14	5.34	5.41	5.97	6.11	5.54	5.60	5.85	5.99	5.96	5.88	5.86	5.75	5.67	5.61	5.66	5.70	5.73	5.77	5.83	5.76	5.56	5.67	5.71	5.68	5.72	5.64	5.65	5.68	5.66	5.65	5.55	5.60	5.67	5.52	5.56	5.54	5.39	5.33	5.41	5.57	5.57	5.55	5.45	5.41	5.49	5.54	5.47	5.31	5.33	5.37	5.38	5.62	5.82	5.61	5.51	5.75	6.03	6.05	5.73	5.62	5.72	5.76	5.79	5.83	5.77	5.71	5.71	
5.54	5.51	5.44	5.36	5.18	4.83	4.66	5.30	6.59	7.36	7.10	6.44	6.24	6.08	5.71	5.58	5.63	5.55	5.63	6.21	6.41	6.03	5.63	5.47	5.83	5.94	5.54	6.04	6.38	5.70	5.42	6.01	6.17	5.86	5.92	5.89	5.73	5.70	5.75	5.77	5.80	5.80	5.80	5.82	5.81	5.79	5.78	5.77	5.78	5.79	5.83	5.91	5.40	4.70	4.95	5.68	6.04	5.71	5.57	5.70	5.51	5.52	5.48	5.67	6.04	5.76	5.51	5.68	5.87	5.98	5.83	5.76	5.82	5.76	5.67	5.75	5.82	5.71	5.75	5.88	5.91	5.73	5.71	5.76	5.75	5.76	5.68	5.67	5.68	5.74	5.88	5.80	5.71	5.83	5.71	5.61	5.66	5.52	5.36	5.44	5.58	5.57	5.61	5.60	5.43	5.41	5.52	5.50	5.38	5.39	5.27	5.25	5.43	5.64	5.71	5.56	5.50	5.74	6.01	5.95	5.70	5.53	5.69	5.99	6.20	6.27	6.22	6.22	
5.60	5.57	5.52	5.45	5.34	5.11	4.73	4.67	5.21	6.20	6.93	6.57	6.10	5.88	5.75	5.62	5.68	5.71	5.62	6.03	6.53	6.35	5.72	5.42	5.90	6.10	5.50	5.67	6.13	5.96	5.50	5.59	5.91	6.00	6.06	5.87	5.79	5.72	5.67	5.73	5.75	5.70	5.71	5.74	5.76	5.78	5.77	5.78	5.80	5.81	5.63	5.85	6.05	5.16	4.69	5.10	5.53	5.65	5.71	5.77	5.61	5.61	5.71	5.70	5.89	5.87	5.59	5.66	5.78	5.83	5.78	5.82	5.81	5.74	5.80	5.79	5.82	5.71	5.60	5.67	5.75	5.71	5.62	5.63	5.74	5.77	5.69	5.62	5.65	5.76	5.94	5.92	5.81	5.89	5.86	5.73	5.76	5.72	5.47	5.38	5.54	5.56	5.59	5.72	5.56	5.46	5.62	5.65	5.52	5.52	5.37	5.23	5.23	5.33	5.64	5.69	5.61	5.75	5.98	6.13	5.99	5.57	5.46	5.79	5.92	6.11	6.37	6.37	
5.63	5.61	5.57	5.52	5.45	5.34	5.08	4.81	4.76	5.22	6.18	6.46	6.15	5.80	5.69	5.61	5.69	5.73	5.51	5.83	6.36	6.68	6.19	5.37	5.71	6.03	5.68	5.78	5.85	5.85	5.80	5.71	5.71	5.87	6.07	5.91	5.81	5.80	5.75	5.74	5.72	5.68	5.68	5.70	5.72	5.74	5.75	5.78	5.83	6.02	5.77	5.45	6.18	6.31	5.72	5.71	5.71	5.51	5.58	5.71	5.66	5.58	5.67	5.72	5.80	5.88	5.69	5.68	5.94	5.85	5.66	5.90	5.87	5.61	5.76	5.78	5.73	5.75	5.63	5.61	5.65	5.69	5.66	5.60	5.64	5.72	5.73	5.62	5.52	5.63	5.85	5.86	5.78	5.81	5.81	5.72	5.67	5.71	5.62	5.44	5.49	5.62	5.66	5.85	5.76	5.48	5.59	5.77	5.66	5.57	5.56	5.44	5.33	5.29	5.52	5.70	5.60	5.66	5.81	5.96	6.01	5.72	5.47	5.60	5.72	5.92	6.17	6.17	
5.67	5.65	5.62	5.58	5.53	5.46	5.36	5.20	5.03	5.06	5.54	6.05	6.09	5.82	5.60	5.45	5.57	5.63	5.43	5.52	5.72	6.22	6.39	5.82	5.83	5.91	5.69	5.91	5.99	5.86	5.84	5.92	5.84	5.79	5.90	5.90	5.84	5.81	5.80	5.79	5.76	5.70	5.68	5.69	5.71	5.72	5.73	5.77	5.90	6.26	6.43	5.95	5.88	6.29	6.06	5.87	5.93	5.73	5.56	5.57	5.60	5.57	5.58	5.60	5.64	5.77	5.73	5.65	5.93	6.01	5.77	5.86	5.92	5.62	5.64	5.78	5.74	5.77	5.74	5.69	5.68	5.63	5.67	5.71	5.68	5.72	5.78	5.68	5.51	5.50	5.67	5.80	5.83	5.80	5.81	5.80	5.67	5.62	5.61	5.42	5.33	5.50	5.62	5.81	5.86	5.60	5.54	5.77	5.81	5.63	5.70	5.74	5.73	5.62	5.60	5.79	5.72	5.67	5.74	5.83	5.86	5.70	5.57	5.62	5.76	5.95	6.09	6.09	
5.69	5.67	5.65	5.62	5.59	5.55	5.50	5.45	5.38	5.32	5.38	5.63	5.81	5.76	5.54	5.31	5.34	5.43	5.42	5.42	5.34	5.53	5.79	5.77	5.91	5.88	5.68	5.70	5.80	5.77	5.64	5.72	5.83	5.83	5.83	5.85	5.85	5.83	5.82	5.83	5.82	5.77	5.72	5.70	5.71	5.69	5.66	5.65	5.77	5.99	6.30	6.15	5.70	5.83	5.93	5.75	5.80	5.86	5.72	5.62	5.63	5.63	5.64	5.62	5.61	5.68	5.65	5.58	5.69	5.78	5.79	5.76	5.81	5.74	5.65	5.73	5.76	5.76	5.76	5.73	5.72	5.58	5.52	5.72	5.77	5.77	5.81	5.68	5.56	5.50	5.49	5.60	5.75	5.78	5.81	5.87	5.79	5.68	5.66	5.45	5.07	5.11	5.29	5.52	5.72	5.65	5.55	5.65	5.82	5.75	5.73	5.77	5.82	5.74	5.60	5.74	5.76	5.68	5.68	5.76	5.79	5.70	5.63	5.64	5.72	5.89	6.01	6.01	
5.71	5.70	5.68	5.66	5.64	5.61	5.59	5.56	5.55	5.55	5.55	5.57	5.64	5.66	5.55	5.40	5.33	5.36	5.43	5.46	5.43	5.45	5.43	5.43	5.66	5.74	5.68	5.67	5.69	5.71	5.65	5.63	5.78	5.85	5.84	5.84	5.82	5.81	5.80	5.81	5.81	5.79	5.77	5.73	5.70	5.68	5.57	5.41	5.36	5.45	5.79	5.96	5.73	5.73	5.89	5.85	5.79	5.80	5.77	5.71	5.70	5.71	5.71	5.67	5.63	5.67	5.64	5.58	5.64	5.64	5.68	5.70	5.72	5.72	5.65	5.70	5.78	5.76	5.75	5.78	5.85	5.75	5.49	5.54	5.59	5.62	5.75	5.67	5.59	5.55	5.49	5.47	5.55	5.61	5.65	5.74	5.84	5.80	5.86	5.76	5.18	4.96	5.06	5.16	5.29	5.33	5.38	5.50	5.64	5.71	5.68	5.67	5.74	5.70	5.59	5.62	5.69	5.68	5.67	5.71	5.75	5.74	5.70	5.69	5.73	5.85	5.95	5.95	
5.72	5.71	5.70	5.69	5.67	5.66	5.64	5.64	5.63	5.63	5.64	5.64	5.63	5.61	5.58	5.53	5.44	5.40	5.46	5.52	5.55	5.59	5.53	5.46	5.56	5.65	5.65	5.68	5.72	5.76	5.74	5.69	5.77	5.83	5.84	5.85	5.84	5.81	5.78	5.77	5.76	5.76	5.77	5.75	5.70	5.66	5.56	5.35	5.23	5.28	5.57	5.84	5.76	5.67	5.75	5.79	5.78	5.77	5.77	5.74	5.71	5.71	5.73	5.70	5.63	5.64	5.64	5.60	5.62	5.65	5.66	5.65	5.71	5.69	5.59	5.64	5.76	5.76	5.73	5.74	5.82	5.85	5.64	5.51	5.49	5.50	5.61	5.63	5.61	5.59	5.55	5.55	5.54	5.59	5.60	5.63	5.83	5.97	6.16	6.28	5.83	5.34	5.36	5.40	5.26	5.17	5.16	5.30	5.42	5.51	5.56	5.59	5.64	5.64	5.60	5.61	5.65	5.67	5.71	5.73	5.74	5.73	5.72	5.71	5.73	5.82	5.90	5.90	
5.73	5.73	5.72	5.71	5.70	5.69	5.68	5.68	5.67	5.67	5.68	5.67	5.66	5.63	5.62	5.59	5.53	5.47	5.46	5.49	5.54	5.62	5.63	5.56	5.58	5.65	5.68	5.68	5.70	5.74	5.74	5.72	5.76	5.79	5.80	5.81	5.83	5.82	5.79	5.77	5.72	5.71	5.73	5.74	5.71	5.64	5.59	5.50	5.35	5.30	5.50	5.71	5.69	5.65	5.66	5.71	5.73	5.72	5.73	5.71	5.67	5.66	5.69	5.68	5.62	5.60	5.61	5.59	5.63	5.66	5.68	5.70	5.75	5.73	5.62	5.62	5.70	5.70	5.65	5.61	5.61	5.68	5.70	5.60	5.52	5.48	5.53	5.60	5.62	5.61	5.59	5.61	5.62	5.67	5.68	5.62	5.68	5.85	6.17	6.54	6.51	6.03	5.83	6.02	5.84	5.36	5.13	5.16	5.26	5.38	5.44	5.51	5.56	5.59	5.60	5.63	5.64	5.63	5.66	5.68	5.70	5.71	5.70	5.72	5.73	5.78	5.84	5.84	
5.74	5.74	5.73	5.72	5.72	5.71	5.71	5.70	5.70	5.70	5.70	5.69	5.69	5.67	5.66	5.64	5.62	5.58	5.54	5.51	5.52	5.58	5.63	5.62	5.60	5.64	5.69	5.70	5.70	5.73	5.74	5.74	5.76	5.78	5.78	5.78	5.80	5.81	5.81	5.81	5.75	5.72	5.71	5.72	5.70	5.65	5.62	5.59	5.47	5.37	5.52	5.71	5.70	5.68	5.67	5.68	5.70	5.71	5.72	5.72	5.69	5.65	5.64	5.64	5.60	5.56	5.54	5.52	5.57	5.59	5.62	5.69	5.76	5.79	5.72	5.68	5.70	5.71	5.65	5.57	5.52	5.50	5.56	5.61	5.56	5.48	5.50	5.58	5.62	5.62	5.61	5.61	5.61	5.69	5.73	5.66	5.60	5.57	5.71	6.06	6.29	6.09	5.77	5.96	6.12	5.62	5.21	5.13	5.24	5.39	5.44	5.50	5.54	5.57	5.59	5.62	5.63	5.61	5.64	5.67	5.69	5.70	5.70	5.69	5.68	5.66	5.65	5.65	
5.75	5.75	5.74	5.74	5.73	5.73	5.72	5.72	5.72	5.72	5.71	5.71	5.70	5.70	5.68	5.67	5.65	5.64	5.60	5.58	5.58	5.58	5.63	5.64	5.63	5.65	5.70	5.71	5.72	5.73	5.73	5.76	5.80	5.81	5.80	5.78	5.77	5.78	5.79	5.79	5.77	5.74	5.73	5.72	5.71	5.68	5.66	5.63	5.55	5.46	5.54	5.70	5.72	5.72	5.71	5.72	5.72	5.72	5.74	5.75	5.71	5.66	5.62	5.56	5.51	5.45	5.43	5.50	5.56	5.58	5.64	5.68	5.69	5.71	5.69	5.67	5.68	5.70	5.61	5.46	5.50	5.56	5.53	5.67	5.78	5.68	5.58	5.56	5.54	5.52	5.53	5.56	5.51	5.51	5.61	5.60	5.55	5.47	5.45	5.67	5.91	5.88	5.67	5.79	6.10	5.90	5.48	5.16	5.27	5.47	5.48	5.51	5.53	5.54	5.57	5.61	5.63	5.61	5.60	5.62	5.62	5.61	5.69	5.76	5.75	5.57	5.42	5.42	
5.75	5.75	5.75	5.74	5.74	5.74	5.73	5.73	5.73	5.73	5.73	5.72	5.72	5.71	5.70	5.70	5.68	5.67	5.64	5.62	5.62	5.62	5.63	5.64	5.63	5.65	5.69	5.70	5.71	5.73	5.73	5.74	5.78	5.82	5.81	5.79	5.76	5.76	5.76	5.76	5.77	5.76	5.74	5.73	5.72	5.70	5.69	5.66	5.61	5.53	5.56	5.71	5.75	5.74	5.73	5.72	5.71	5.72	5.74	5.78	5.78	5.75	5.80	5.82	5.78	5.65	5.50	5.59	5.76	5.73	5.72	5.74	5.73	5.71	5.67	5.62	5.67	5.88	5.91	5.79	5.83	5.92	5.76	5.71	5.86	5.91	5.85	5.72	5.64	5.61	5.63	5.75	5.75	5.60	5.51	5.49	5.51	5.49	5.45	5.54	5.78	5.91	5.82	5.84	6.07	6.18	5.98	5.53	5.38	5.53	5.52	5.50	5.52	5.54	5.55	5.59	5.61	5.60	5.57	5.60	5.58	5.48	5.51	5.79	6.09	5.90	5.61	5.61	
5.75	5.75	5.75	5.75	5.75	5.75	5.74	5.74	5.74	5.74	5.74	5.73	5.73	5.72	5.72	5.71	5.70	5.69	5.67	5.65	5.65	5.65	5.66	5.66	5.64	5.65	5.69	5.70	5.71	5.71	5.73	5.72	5.72	5.77	5.80	5.79	5.76	5.76	5.76	5.74	5.77	5.77	5.74	5.73	5.72	5.69	5.69	5.68	5.65	5.59	5.58	5.70	5.76	5.76	5.79	5.78	5.71	5.72	5.78	5.86	6.00	6.01	6.11	6.33	6.43	6.33	5.96	5.69	5.79	5.81	5.78	5.81	5.85	5.83	5.82	5.83	5.89	6.24	6.46	6.41	6.35	6.34	6.17	5.88	5.81	5.98	6.23	6.30	6.17	6.07	6.02	6.02	6.08	6.07	5.81	5.58	5.58	5.57	5.55	5.53	5.63	5.87	6.06	5.98	5.92	6.14	6.14	5.85	5.61	5.62	5.61	5.52	5.50	5.51	5.53	5.54	5.53	5.57	5.58	5.64	5.73	5.54	5.25	5.39	5.86	6.06	6.02	6.02	
5.76	5.76	5.75	5.75	5.75	5.75	5.75	5.75	5.75	5.74	5.74	5.74	5.74	5.73	5.73	5.73	5.72	5.71	5.70	5.68	5.66	5.66	5.67	5.67	5.65	5.66	5.68	5.70	5.71	5.70	5.71	5.72	5.70	5.73	5.78	5.77	5.75	5.77	5.76	5.72	5.75	5.76	5.74	5.74	5.74	5.71	5.69	5.69	5.67	5.62	5.62	5.70	5.73	5.76	5.85	5.93	5.88	5.82	5.88	5.94	6.13	6.13	6.00	6.09	6.27	6.37	6.18	5.82	5.73	5.77	5.76	5.83	6.00	6.02	6.00	6.04	5.96	5.98	6.11	6.19	6.26	6.35	6.47	6.35	6.05	6.02	6.19	6.40	6.38	6.17	6.07	5.97	5.92	6.11	6.06	5.78	5.69	5.61	5.48	5.43	5.43	5.54	5.90	5.97	5.70	5.76	5.85	5.75	5.66	5.68	5.71	5.63	5.53	5.48	5.47	5.51	5.46	5.42	5.44	5.50	5.85	5.88	5.31	5.12	5.26	5.50	5.77	5.77	
5.76	5.76	5.76	5.75	5.75	5.75	5.75	5.75	5.75	5.75	5.75	5.75	5.74	5.74	5.74	5.73	5.73	5.72	5.71	5.70	5.69	5.69	5.70	5.68	5.66	5.67	5.68	5.69	5.71	5.71	5.72	5.73	5.71	5.72	5.76	5.76	5.75	5.77	5.76	5.72	5.73	5.75	5.74	5.75	5.75	5.73	5.72	5.71	5.69	5.64	5.64	5.70	5.72	5.72	5.79	5.94	6.02	5.96	5.84	5.74	5.83	5.87	5.71	5.66	5.75	5.90	5.92	5.82	5.75	5.78	5.74	5.77	5.98	6.04	5.95	5.84	5.71	5.60	5.61	5.67	5.76	5.81	5.99	6.21	6.03	5.80	5.71	5.77	5.88	5.85	5.81	5.81	5.79	5.82	5.88	5.80	5.78	5.77	5.48	5.24	5.29	5.33	5.51	5.68	5.66	5.63	5.65	5.58	5.54	5.62	5.72	5.77	5.74	5.70	5.58	5.57	5.57	5.40	5.28	5.22	5.55	5.94	5.48	5.27	5.44	5.31	5.27	5.27	
5.76	5.76	5.76	5.76	5.76	5.76	5.76	5.75	5.75	5.75	5.75	5.75	5.75	5.75	5.74	5.74	5.74	5.73	5.73	5.71	5.70	5.71	5.73	5.71	5.68	5.68	5.69	5.69	5.69	5.67	5.69	5.72	5.72	5.73	5.74	5.75	5.76	5.77	5.77	5.75	5.75	5.75	5.73	5.73	5.74	5.73	5.72	5.72	5.70	5.65	5.64	5.67	5.66	5.60	5.55	5.63	5.78	5.87	5.72	5.52	5.55	5.63	5.62	5.62	5.69	5.76	5.78	5.75	5.72	5.77	5.75	5.64	5.67	5.68	5.66	5.66	5.60	5.52	5.46	5.44	5.47	5.44	5.40	5.53	5.60	5.52	5.52	5.56	5.58	5.67	5.59	5.50	5.57	5.60	5.56	5.61	5.80	5.99	5.93	5.56	5.44	5.47	5.51	5.57	5.64	5.78	5.80	5.64	5.52	5.52	5.60	5.75	5.84	5.94	5.92	5.77	5.72	5.50	5.23	5.16	5.37	5.81	5.63	5.41	5.74	5.55	5.16	5.16	
5.76	5.76	5.76	5.76	5.76	5.76	5.76	5.76	5.76	5.76	5.75	5.75	5.75	5.75	5.75	5.74	5.74	5.74	5.73	5.72	5.71	5.70	5.72	5.72	5.70	5.71	5.71	5.73	5.75	5.71	5.69	5.70	5.73	5.76	5.75	5.75	5.76	5.77	5.77	5.76	5.75	5.75	5.73	5.72	5.72	5.71	5.71	5.71	5.69	5.67	5.68	5.71	5.68	5.53	5.41	5.40	5.50	5.67	5.68	5.60	5.58	5.62	5.64	5.67	5.72	5.76	5.76	5.75	5.67	5.64	5.69	5.63	5.56	5.53	5.54	5.60	5.61	5.56	5.47	5.41	5.41	5.46	5.43	5.35	5.33	5.32	5.39	5.51	5.46	5.55	5.67	5.58	5.59	5.77	5.74	5.66	5.84	5.97	6.02	5.94	5.81	5.62	5.63	5.70	5.60	5.76	6.00	5.90	5.70	5.63	5.60	5.61	5.61	5.68	5.97	6.04	5.94	5.67	5.22	5.14	5.40	5.72	5.72	5.41	5.56	5.48	5.09	5.09	
5.76	5.76	5.76	5.76	5.76	5.76	5.76	5.76	5.76	5.76	5.76	5.76	5.75	5.75	5.75	5.75	5.75	5.74	5.74	5.73	5.72	5.72	5.74	5.73	5.71	5.72	5.72	5.74	5.81	5.82	5.78	5.76	5.75	5.76	5.76	5.75	5.76	5.76	5.76	5.76	5.76	5.76	5.75	5.73	5.72	5.71	5.71	5.70	5.68	5.68	5.69	5.84	5.99	5.84	5.65	5.62	5.62	5.63	5.68	5.69	5.66	5.66	5.67	5.71	5.73	5.73	5.73	5.72	5.67	5.61	5.65	5.64	5.64	5.66	5.62	5.56	5.57	5.55	5.40	5.37	5.36	5.35	5.47	5.50	5.27	5.18	5.36	5.58	5.45	5.43	5.82	5.97	5.98	6.10	6.17	6.05	5.99	5.96	5.84	5.95	6.18	5.81	5.48	5.61	5.58	5.59	5.88	6.07	5.81	5.61	5.70	5.80	5.65	5.57	5.91	6.22	6.22	5.96	5.48	5.19	5.38	5.52	5.60	5.58	5.63	5.61	5.35	5.35	
5.76	5.76	5.76	5.76	5.76	5.76	5.76	5.76	5.76	5.76	5.76	5.76	5.76	5.76	5.75	5.75	5.75	5.75	5.74	5.74	5.73	5.73	5.76	5.76	5.74	5.73	5.71	5.70	5.74	5.78	5.78	5.77	5.76	5.76	5.77	5.76	5.76	5.76	5.76	5.77	5.77	5.78	5.77	5.75	5.73	5.72	5.71	5.70	5.69	5.66	5.61	5.73	6.04	6.06	5.86	5.79	5.81	5.71	5.68	5.71	5.70	5.70	5.70	5.72	5.73	5.74	5.74	5.73	5.70	5.71	5.78	5.73	5.73	5.80	5.81	5.70	5.67	5.66	5.35	5.21	5.24	5.22	5.38	5.82	5.62	5.20	5.29	5.74	5.86	5.66	5.84	5.81	5.75	5.80	5.91	6.07	6.15	6.17	5.93	5.89	6.35	6.33	5.76	5.58	5.62	5.52	5.56	5.92	5.88	5.58	5.64	5.91	5.73	5.52	5.94	6.36	6.42	6.10	5.69	5.24	5.37	5.59	5.57	5.75	5.88	5.86	5.72	5.72	
5.76	5.76	5.76	5.76	5.76	5.76	5.76	5.76	5.76	5.76	5.76	5.76	5.76	5.76	5.76	5.75	5.75	5.75	5.75	5.74	5.73	5.72	5.74	5.77	5.77	5.75	5.73	5.72	5.72	5.74	5.76	5.76	5.77	5.77	5.76	5.77	5.77	5.77	5.76	5.77	5.77	5.78	5.77	5.76	5.75	5.73	5.72	5.71	5.69	5.66	5.54	5.48	5.65	5.78	5.74	5.70	5.75	5.74	5.71	5.74	5.73	5.73	5.73	5.73	5.73	5.75	5.74	5.70	5.68	5.70	5.81	5.78	5.71	5.82	5.97	5.91	5.95	5.95	5.66	5.45	5.32	5.35	5.39	5.91	6.21	5.84	5.55	5.80	6.04	5.85	5.91	5.82	5.60	5.58	5.64	5.81	6.02	6.24	6.17	6.05	6.33	6.71	6.55	6.13	6.01	5.91	5.72	5.84	5.80	5.57	5.54	5.73	5.59	5.17	5.61	6.32	6.65	6.52	6.11	5.66	5.57	5.83	5.69	5.49	5.71	5.98	6.02	6.02	
5.76	5.76	5.76	5.76	5.76	5.76	5.76	5.76	5.76	5.76	5.76	5.76	5.76	5.76	5.76	5.76	5.75	5.75	5.75	5.74	5.74	5.72	5.72	5.75	5.77	5.76	5.74	5.75	5.75	5.75	5.77	5.77	5.77	5.77	5.76	5.76	5.77	5.76	5.75	5.76	5.76	5.77	5.77	5.76	5.75	5.74	5.72	5.71	5.70	5.66	5.58	5.52	5.54	5.62	5.68	5.69	5.70	5.73	5.74	5.75	5.78	5.78	5.77	5.76	5.72	5.74	5.75	5.70	5.66	5.62	5.65	5.70	5.63	5.81	6.15	6.16	6.44	6.53	6.25	6.09	5.90	5.78	5.66	5.76	6.10	6.26	5.93	5.69	5.75	5.68	5.80	5.94	5.77	5.62	5.60	5.69	5.79	5.96	6.07	6.01	6.02	6.29	6.49	6.33	6.26	6.35	6.30	6.31	6.08	5.71	5.72	5.74	5.52	4.88	4.82	5.48	6.10	6.51	6.50	6.38	6.26	6.28	6.11	5.55	5.48	5.97	6.24	6.24	
5.76	5.76	5.76	5.76	5.76	5.76	5.76	5.76	5.76	5.76	5.76	5.76	5.76	5.76	5.76	5.76	5.76	5.75	5.75	5.75	5.74	5.73	5.71	5.73	5.76	5.76	5.74	5.74	5.75	5.74	5.75	5.75	5.76	5.77	5.76	5.76	5.76	5.76	5.75	5.76	5.75	5.76	5.77	5.77	5.75	5.74	5.73	5.72	5.70	5.68	5.66	5.65	5.65	5.67	5.70	5.71	5.70	5.72	5.73	5.72	5.75	5.80	5.79	5.79	5.74	5.71	5.72	5.72	5.68	5.66	5.65	5.68	5.47	5.46	5.95	6.10	6.39	6.79	6.66	6.18	5.90	5.74	5.57	5.44	5.43	5.68	5.62	5.43	5.45	5.50	5.50	5.64	5.71	5.63	5.53	5.53	5.62	5.66	5.73	5.76	5.76	5.88	6.02	5.94	5.83	5.94	6.15	6.40	6.53	6.41	6.41	6.34	5.98	5.36	5.01	5.19	5.61	6.00	5.97	5.78	5.88	6.14	6.30	5.88	5.40	5.82	6.29	6.29	
5.76	5.76	5.76	5.76	5.76	5.76	5.76	5.76	5.76	5.76	5.76	5.76	5.76	5.76	5.76	5.76	5.76	5.75	5.75	5.75	5.75	5.74	5.72	5.72	5.76	5.77	5.75	5.74	5.75	5.75	5.74	5.74	5.75	5.76	5.76	5.76	5.76	5.75	5.75	5.76	5.76	5.75	5.76	5.77	5.76	5.75	5.74	5.73	5.72	5.71	5.69	5.68	5.68	5.69	5.71	5.71	5.70	5.72	5.72	5.69	5.69	5.73	5.75	5.78	5.77	5.74	5.74	5.75	5.72	5.71	5.66	5.71	5.54	5.15	5.22	5.38	5.50	6.03	6.43	5.92	5.52	5.44	5.32	5.05	5.10	5.64	5.93	5.80	5.52	5.52	5.48	5.43	5.56	5.59	5.54	5.49	5.54	5.61	5.62	5.67	5.71	5.76	5.78	5.76	5.55	5.36	5.51	5.68	5.78	5.88	6.08	6.34	6.45	6.30	6.05	5.82	5.84	6.13	6.07	5.58	5.42	5.59	5.91	5.99	5.48	5.64	6.15	6.15	
5.76	5.76	5.76	5.76	5.76	5.76	5.76	5.76	5.76	5.76	5.76	5.76	5.76	5.76	5.76	5.76	5.76	5.76	5.75	5.75	5.75	5.74	5.73	5.72	5.75	5.78	5.75	5.74	5.75	5.75	5.75	5.74	5.74	5.75	5.76	5.77	5.77	5.76	5.75	5.76	5.76	5.75	5.76	5.77	5.77	5.76	5.75	5.73	5.73	5.72	5.71	5.71	5.71	5.71	5.72	5.72	5.71	5.72	5.73	5.73	5.72	5.73	5.74	5.76	5.78	5.77	5.76	5.77	5.75	5.78	5.72	5.63	5.63	5.41	5.16	5.05	4.99	5.46	6.16	5.85	5.44	5.51	5.63	5.40	5.07	5.30	5.87	6.18	5.99	5.88	5.78	5.60	5.55	5.54	5.53	5.54	5.58	5.61	5.63	5.65	5.74	5.76	5.71	5.94	6.00	5.68	5.62	5.77	5.77	5.74	5.84	6.01	6.20	6.25	6.10	5.85	5.64	5.90	6.29	6.15	5.84	5.63	5.68	6.09	5.92	5.78	6.08	6.08	
5.76	5.76	5.76	5.76	5.76	5.76	5.76	5.76	5.76	5.76	5.76	5.76	5.76	5.76	5.76	5.76	5.76	5.76	5.75	5.75	5.75	5.75	5.74	5.72	5.73	5.78	5.76	5.74	5.75	5.76	5.75	5.75	5.75	5.75	5.76	5.77	5.77	5.77	5.76	5.76	5.76	5.75	5.75	5.75	5.75	5.76	5.76	5.74	5.73	5.73	5.73	5.73	5.72	5.72	5.72	5.72	5.72	5.73	5.74	5.75	5.75	5.75	5.75	5.75	5.75	5.77	5.79	5.80	5.77	5.83	5.84	5.58	5.37	5.36	5.43	5.37	5.11	5.32	6.19	6.23	5.60	5.55	5.71	5.74	5.41	4.93	5.17	5.71	5.92	5.99	5.92	5.79	5.69	5.66	5.59	5.55	5.62	5.68	5.70	5.66	5.83	5.88	5.69	5.91	6.22	6.23	6.11	6.24	6.46	6.57	6.68	6.67	6.56	6.37	6.00	5.61	5.50	5.57	5.75	5.90	5.91	5.56	5.22	5.67	5.98	5.87	5.93	5.93	
5.76	5.76	5.76	5.76	5.76	5.76	5.76	5.76	5.76	5.76	5.76	5.76	5.76	5.76	5.76	5.76	5.76	5.76	5.76	5.75	5.75	5.75	5.74	5.73	5.73	5.78	5.78	5.74	5.74	5.77	5.76	5.76	5.76	5.75	5.77	5.77	5.77	5.77	5.77	5.76	5.76	5.76	5.75	5.76	5.75	5.74	5.75	5.75	5.74	5.74	5.73	5.73	5.73	5.73	5.73	5.73	5.73	5.73	5.73	5.74	5.75	5.76	5.77	5.77	5.77	5.76	5.71	5.68	5.72	5.90	6.19	6.02	5.23	4.57	4.75	5.35	5.39	5.19	5.94	6.59	6.21	5.91	5.80	5.80	5.83	5.45	5.24	5.41	5.60	5.79	5.89	5.82	5.69	5.67	5.64	5.59	5.60	5.70	5.82	5.84	6.04	6.06	5.62	5.50	5.70	5.89	5.80	5.68	5.64	5.66	5.91	6.17	6.53	6.85	6.66	5.83	5.52	5.81	5.79	5.60	6.00	5.82	4.92	5.06	5.79	5.83	5.59	5.59	
5.76	5.76	5.76	5.76	5.76	5.76	5.76	5.76	5.76	5.76	5.76	5.76	5.76	5.76	5.76	5.76	5.76	5.76	5.76	5.75	5.75	5.75	5.75	5.73	5.72	5.77	5.79	5.75	5.73	5.76	5.76	5.76	5.76	5.75	5.76	5.76	5.76	5.77	5.77	5.77	5.77	5.76	5.76	5.77	5.77	5.75	5.75	5.75	5.75	5.74	5.73	5.73	5.73	5.74	5.74	5.73	5.72	5.73	5.74	5.74	5.75	5.76	5.77	5.77	5.78	5.88	5.84	5.57	5.55	5.72	6.58	7.29	6.44	4.98	4.51	5.12	5.40	4.95	5.29	6.02	6.17	6.07	5.94	5.86	5.85	5.72	5.49	5.44	5.51	5.61	5.81	5.85	5.67	5.60	5.62	5.62	5.60	5.61	5.68	5.74	6.07	6.26	5.80	5.36	5.45	5.57	5.35	5.21	5.12	5.06	5.10	5.18	5.52	6.15	6.83	6.48	5.67	5.87	6.18	5.68	5.93	6.37	5.53	5.08	5.82	6.09	5.79	5.79	
5.76	5.76	5.76	5.76	5.76	5.76	5.76	5.76	5.76	5.76	5.76	5.76	5.76	5.76	5.76	5.76	5.76	5.76	5.76	5.76	5.75	5.75	5.75	5.74	5.71	5.74	5.80	5.76	5.73	5.75	5.75	5.75	5.75	5.74	5.75	5.76	5.76	5.76	5.77	5.77	5.76	5.76	5.76	5.76	5.76	5.76	5.75	5.75	5.75	5.74	5.74	5.73	5.73	5.73	5.73	5.73	5.72	5.72	5.74	5.74	5.74	5.75	5.75	5.78	5.74	5.89	6.08	5.69	5.40	5.08	5.56	7.18	7.72	7.22	6.25	5.93	5.85	5.25	5.20	5.53	5.71	5.77	5.76	5.76	5.72	5.65	5.53	5.41	5.38	5.38	5.54	5.81	5.76	5.62	5.60	5.60	5.61	5.62	5.57	5.46	5.73	6.21	5.99	5.48	5.48	5.74	5.55	5.17	5.04	5.18	5.20	4.99	5.03	5.25	5.89	6.32	5.84	5.77	6.15	5.76	5.61	6.22	5.85	5.25	5.73	6.18	6.12	6.12	
5.76	5.76	5.76	5.76	5.76	5.76	5.76	5.76	5.76	5.76	5.76	5.76	5.76	5.76	5.76	5.76	5.76	5.76	5.76	5.76	5.75	5.75	5.75	5.74	5.72	5.73	5.80	5.78	5.74	5.75	5.76	5.76	5.76	5.75	5.75	5.76	5.76	5.76	5.77	5.77	5.77	5.76	5.76	5.75	5.75	5.76	5.75	5.75	5.75	5.74	5.74	5.74	5.73	5.73	5.75	5.73	5.72	5.72	5.73	5.75	5.77	5.78	5.77	5.74	5.67	5.66	5.98	5.90	5.41	4.66	4.28	5.13	6.25	6.95	6.85	6.54	6.25	5.72	5.49	5.54	5.63	5.65	5.63	5.63	5.63	5.56	5.50	5.44	5.38	5.31	5.32	5.53	5.63	5.55	5.51	5.49	5.50	5.55	5.65	5.62	5.73	6.11	5.93	5.58	5.56	5.81	6.11	5.65	5.00	5.12	5.43	5.19	5.01	5.16	5.47	5.85	5.76	5.80	6.15	5.79	5.54	5.98	5.74	5.22	5.53	6.05	6.20	6.20	
5.76	5.76	5.76	5.76	5.76	5.76	5.76	5.76	5.76	5.76	5.76	5.76	5.76	5.76	5.76	5.76	5.76	5.76	5.76	5.76	5.76	5.75	5.75	5.75	5.73	5.71	5.77	5.79	5.75	5.74	5.76	5.77	5.77	5.77	5.76	5.75	5.76	5.75	5.76	5.77	5.77	5.77	5.76	5.76	5.76	5.76	5.75	5.75	5.75	5.75	5.74	5.74	5.73	5.73	5.75	5.74	5.72	5.73	5.72	5.75	5.76	5.81	5.92	5.88	5.79	5.75	5.89	6.12	5.77	4.89	4.47	4.84	5.24	5.64	5.96	6.20	6.17	5.79	5.66	5.68	5.69	5.69	5.66	5.60	5.62	5.59	5.48	5.44	5.40	5.31	5.24	5.28	5.43	5.45	5.37	5.37	5.33	5.27	5.37	5.55	5.88	6.29	6.06	5.64	5.63	5.66	6.16	6.24	5.37	5.13	5.53	5.46	5.07	5.14	5.49	5.77	5.69	5.75	6.45	6.23	5.57	5.93	5.63	4.94	5.23	5.87	6.13	6.13	
5.76	5.76	5.76	5.76	5.76	5.76	5.76	5.76	5.76	5.76	5.76	5.76	5.76	5.76	5.76	5.76	5.76	5.76	5.76	5.76	5.76	5.75	5.75	5.75	5.74	5.71	5.74	5.78	5.76	5.74	5.75	5.75	5.76	5.77	5.76	5.75	5.76	5.76	5.75	5.77	5.77	5.77	5.76	5.76	5.77	5.77	5.75	5.75	5.76	5.76	5.75	5.75	5.74	5.73	5.74	5.74	5.74	5.74	5.72	5.73	5.72	5.72	5.90	6.07	6.05	5.93	5.89	6.22	6.45	5.88	5.25	5.29	5.37	5.40	5.52	5.77	6.02	5.85	5.72	5.74	5.72	5.76	5.77	5.66	5.59	5.54	5.43	5.39	5.31	5.28	5.30	5.27	5.34	5.42	5.33	5.32	5.30	5.12	5.01	5.10	5.58	6.20	6.32	5.88	5.63	5.65	5.98	6.26	5.63	5.27	5.59	5.64	5.17	4.97	5.32	5.75	5.73	5.45	6.19	6.62	5.82	6.09	6.06	4.94	4.98	5.71	6.00	6.00	
5.76	5.76	5.76	5.76	5.76	5.76	5.76	5.76	5.76	5.76	5.76	5.76	5.76	5.76	5.76	5.76	5.76	5.76	5.76	5.76	5.76	5.75	5.75	5.75	5.74	5.73	5.73	5.77	5.77	5.76	5.75	5.75	5.76	5.77	5.76	5.75	5.76	5.77	5.76	5.76	5.77	5.78	5.78	5.76	5.77	5.77	5.76	5.75	5.76	5.78	5.77	5.75	5.75	5.74	5.74	5.73	5.74	5.74	5.74	5.70	5.60	5.62	5.72	5.95	6.32	6.34	6.10	6.28	6.70	6.77	6.28	5.73	5.58	5.62	5.51	5.48	5.64	5.75	5.85	5.84	5.83	5.92	5.93	5.80	5.72	5.61	5.49	5.53	5.42	5.23	5.33	5.46	5.41	5.35	5.28	5.34	5.47	5.27	4.98	4.85	5.06	5.55	6.06	6.15	5.68	5.65	6.09	6.26	5.78	5.56	5.86	5.96	5.60	5.13	5.16	5.59	5.70	5.29	5.65	6.49	6.06	6.08	6.64	5.66	5.01	5.61	6.01	6.01	
5.76	5.76	5.76	5.76	5.76	5.76	5.76	5.76	5.76	5.76	5.76	5.76	5.76	5.76	5.76	5.76	5.76	5.76	5.76	5.76	5.76	5.76	5.75	5.75	5.75	5.74	5.73	5.74	5.76	5.77	5.74	5.74	5.77	5.77	5.76	5.75	5.76	5.77	5.76	5.76	5.77	5.77	5.78	5.77	5.77	5.78	5.77	5.75	5.75	5.77	5.78	5.76	5.75	5.75	5.74	5.73	5.73	5.70	5.83	5.86	5.56	5.56	5.70	5.70	6.12	6.42	5.95	5.67	5.79	6.18	6.57	6.44	6.13	6.13	6.00	5.79	5.66	5.60	5.90	6.00	5.89	5.99	6.18	6.14	6.14	6.20	6.09	6.21	6.24	5.74	5.53	5.77	5.87	5.69	5.41	5.34	5.62	5.57	5.22	4.97	4.98	5.14	5.51	6.09	5.88	5.65	6.14	6.36	5.88	5.82	6.08	5.98	5.80	5.36	5.15	5.46	5.70	5.37	5.38	6.13	6.00	5.71	6.47	6.27	5.35	5.56	5.98	5.98	
5.76	5.76	5.76	5.76	5.76	5.76	5.76	5.76	5.76	5.76	5.76	5.76	5.76	5.76	5.76	5.76	5.76	5.76	5.76	5.76	5.76	5.76	5.76	5.75	5.75	5.74	5.74	5.73	5.74	5.78	5.76	5.74	5.76	5.78	5.77	5.75	5.76	5.77	5.76	5.76	5.77	5.77	5.77	5.76	5.77	5.77	5.77	5.75	5.75	5.76	5.77	5.77	5.76	5.74	5.75	5.74	5.74	5.65	5.76	6.00	5.73	5.51	5.54	5.40	5.54	5.89	5.67	5.39	5.31	5.29	5.68	6.25	6.25	6.24	6.32	6.21	6.04	5.67	5.68	5.87	5.78	5.72	5.92	6.03	6.06	6.29	6.33	6.38	6.66	6.52	6.01	5.86	6.09	6.28	6.01	5.58	5.65	5.79	5.62	5.33	5.20	5.18	5.25	5.72	5.89	5.71	5.99	6.23	5.76	5.74	6.16	6.10	5.81	5.45	5.31	5.51	5.79	5.59	5.36	5.82	6.00	5.72	5.99	6.01	5.45	5.58	5.95	5.95	
5.76	5.76	5.76	5.76	5.76	5.76	5.76	5.76	5.76	5.76	5.76	5.76	5.76	5.76	5.76	5.76	5.76	5.76	5.76	5.76	5.76	5.76	5.76	5.75	5.75	5.75	5.75	5.74	5.73	5.77	5.78	5.75	5.75	5.77	5.77	5.76	5.75	5.76	5.76	5.75	5.76	5.77	5.77	5.76	5.76	5.76	5.77	5.76	5.75	5.75	5.76	5.76	5.75	5.74	5.75	5.73	5.73	5.64	5.58	5.76	5.68	5.42	5.14	5.11	5.54	5.86	5.86	5.78	5.82	5.61	5.35	5.74	6.04	5.99	6.00	5.95	5.91	5.76	5.66	5.77	5.75	5.64	5.59	5.44	5.37	5.49	5.55	5.58	5.82	6.23	6.20	5.79	5.78	6.05	6.14	5.95	5.75	5.81	5.76	5.57	5.41	5.31	5.27	5.40	5.61	5.63	5.83	5.99	5.61	5.43	5.77	6.09	6.03	5.60	5.38	5.54	5.80	5.75	5.47	5.52	5.87	5.97	5.99	5.81	5.23	5.39	5.83	5.83	
5.76	5.76	5.76	5.76	5.76	5.76	5.76	5.76	5.76	5.76	5.76	5.76	5.76	5.76	5.76	5.76	5.76	5.76	5.76	5.76	5.76	5.76	5.76	5.76	5.75	5.75	5.75	5.74	5.73	5.73	5.76	5.76	5.77	5.78	5.76	5.75	5.76	5.76	5.76	5.75	5.75	5.76	5.76	5.76	5.76	5.76	5.77	5.77	5.76	5.76	5.76	5.76	5.75	5.75	5.74	5.74	5.71	5.67	5.62	5.67	5.74	5.62	5.23	5.11	5.49	5.74	5.82	5.80	5.98	6.06	5.69	5.70	6.07	6.24	6.21	6.12	5.93	5.85	5.89	5.89	5.71	5.74	5.77	5.38	5.14	5.17	5.19	5.25	5.30	5.63	6.05	5.84	5.75	5.82	5.76	5.84	5.74	5.80	5.70	5.51	5.50	5.40	5.36	5.38	5.47	5.50	5.64	5.76	5.61	5.48	5.49	5.66	5.83	5.64	5.38	5.47	5.69	5.75	5.67	5.49	5.67	6.02	6.22	6.30	5.63	5.28	5.52	5.52	
5.76	5.76	5.76	5.76	5.76	5.76	5.76	5.76	5.76	5.76	5.76	5.76	5.76	5.76	5.76	5.76	5.76	5.76	5.76	5.76	5.76	5.76	5.76	5.76	5.76	5.75	5.75	5.75	5.74	5.73	5.74	5.74	5.76	5.79	5.79	5.77	5.75	5.75	5.76	5.76	5.76	5.77	5.77	5.76	5.76	5.76	5.76	5.76	5.76	5.77	5.77	5.77	5.76	5.75	5.75	5.74	5.72	5.70	5.69	5.72	5.90	5.97	5.76	5.62	5.56	5.49	5.57	5.55	5.67	5.84	5.51	5.35	5.76	6.11	6.32	6.53	6.39	6.07	6.04	6.15	5.84	5.73	5.75	5.37	5.11	5.05	5.08	5.12	5.06	5.13	5.51	5.55	5.67	5.93	5.81	5.68	5.53	5.70	5.75	5.47	5.42	5.42	5.41	5.43	5.52	5.57	5.63	5.65	5.57	5.48	5.47	5.48	5.53	5.53	5.38	5.39	5.56	5.64	5.71	5.65	5.68	5.84	5.93	6.39	6.31	5.74	5.61	5.61	
5.76	5.76	5.76	5.76	5.76	5.76	5.76	5.76	5.76	5.76	5.76	5.76	5.76	5.76	5.76	5.76	5.76	5.76	5.76	5.76	5.76	5.76	5.76	5.76	5.76	5.76	5.75	5.75	5.75	5.74	5.73	5.73	5.72	5.74	5.77	5.78	5.78	5.75	5.76	5.76	5.75	5.77	5.77	5.76	5.76	5.76	5.76	5.76	5.76	5.77	5.77	5.77	5.76	5.76	5.77	5.77	5.75	5.70	5.64	5.58	5.61	5.65	5.54	5.65	5.72	5.47	5.35	5.44	5.73	5.93	5.55	5.18	5.45	5.67	5.66	6.00	6.22	6.07	5.72	5.77	5.80	5.70	5.64	5.15	4.85	4.78	4.70	4.79	4.88	4.84	5.01	5.19	5.35	5.65	5.87	5.85	5.48	5.34	5.52	5.41	5.28	5.33	5.38	5.43	5.52	5.60	5.65	5.61	5.54	5.42	5.29	5.22	5.16	5.20	5.36	5.41	5.38	5.37	5.49	5.61	5.66	5.69	5.50	5.83	6.18	6.07	6.06	6.06	
5.76	5.76	5.76	5.76	5.76	5.76	5.76	5.76	5.76	5.76	5.76	5.76	5.76	5.76	5.76	5.76	5.76	5.76	5.76	5.76	5.76	5.76	5.76	5.76	5.76	5.76	5.76	5.75	5.75	5.75	5.74	5.74	5.73	5.72	5.73	5.76	5.78	5.77	5.77	5.76	5.74	5.75	5.77	5.76	5.75	5.76	5.76	5.76	5.76	5.76	5.77	5.79	5.78	5.77	5.80	5.80	5.75	5.65	5.54	5.45	5.38	5.32	5.15	5.25	5.63	5.63	5.24	5.22	5.81	6.17	5.95	5.52	5.46	5.59	5.43	5.31	5.66	6.18	5.68	5.26	5.42	5.61	5.90	5.41	4.81	4.82	4.67	4.67	5.05	5.05	4.97	5.09	5.23	5.37	5.61	5.95	5.80	5.45	5.55	5.52	5.34	5.28	5.27	5.40	5.57	5.79	5.99	5.96	5.91	5.98	5.75	5.49	5.25	4.92	5.22	5.65	5.57	5.30	5.18	5.28	5.47	5.67	5.45	5.47	5.65	5.90	6.26	6.26	
5.76	5.76	5.76	5.76	5.76	5.76	5.76	5.76	5.76	5.76	5.76	5.76	5.76	5.76	5.76	5.76	5.76	5.76	5.76	5.76	5.76	5.76	5.76	5.76	5.76	5.76	5.76	5.76	5.75	5.75	5.75	5.75	5.75	5.74	5.73	5.73	5.74	5.76	5.77	5.77	5.76	5.75	5.76	5.77	5.76	5.76	5.77	5.76	5.75	5.75	5.77	5.79	5.78	5.78	5.81	5.94	5.92	5.62	5.52	5.47	5.43	5.55	5.38	5.13	5.39	5.84	5.56	5.14	5.40	5.67	5.76	5.73	5.65	5.78	5.99	5.65	5.99	7.05	6.55	5.81	5.53	5.57	6.38	6.48	5.72	5.66	5.60	5.18	5.25	5.34	5.25	5.27	5.37	5.38	5.50	5.98	6.09	5.74	5.72	5.66	5.51	5.41	5.20	5.23	5.38	5.53	5.87	6.28	6.42	6.57	6.66	6.47	6.18	5.42	5.21	5.86	6.23	6.01	5.54	5.12	5.15	5.56	5.59	5.50	5.49	5.79	6.25	6.25	
5.76	5.76	5.76	5.76	5.76	5.76	5.76	5.76	5.76	5.76	5.76	5.76	5.76	5.76	5.76	5.76	5.76	5.76	5.76	5.76	5.76	5.76	5.76	5.76	5.76	5.76	5.76	5.76	5.76	5.75	5.75	5.75	5.75	5.75	5.75	5.74	5.74	5.74	5.76	5.77	5.78	5.76	5.75	5.76	5.76	5.76	5.76	5.76	5.77	5.75	5.75	5.78	5.78	5.79	5.78	6.00	6.38	6.03	5.66	5.60	5.41	5.68	5.77	5.11	4.82	5.32	5.56	5.44	5.48	5.45	5.47	5.59	5.67	5.96	6.52	6.42	6.61	7.85	7.78	6.78	6.36	6.01	6.33	6.87	6.76	6.37	6.25	5.88	5.26	5.10	5.19	5.21	5.44	5.52	5.43	5.77	5.98	5.71	5.47	5.41	5.47	5.58	5.40	5.15	5.10	5.04	4.85	5.29	5.94	6.14	6.38	6.51	6.52	6.06	5.35	5.40	6.03	6.40	6.23	5.60	5.26	5.49	5.60	5.53	5.52	5.87	6.29	6.29	
5.76	5.76	5.76	5.76	5.76	5.76	5.76	5.76	5.76	5.76	5.76	5.76	5.76	5.76	5.76	5.76	5.76	5.76	5.76	5.76	5.76	5.76	5.76	5.76	5.76	5.76	5.76	5.76	5.76	5.76	5.76	5.75	5.75	5.75	5.75	5.75	5.75	5.74	5.74	5.75	5.77	5.78	5.76	5.75	5.76	5.76	5.75	5.74	5.76	5.77	5.76	5.78	5.79	5.79	5.75	5.80	6.44	6.63	6.11	5.83	5.30	5.40	5.91	5.43	4.87	4.93	5.36	5.68	5.75	5.72	5.68	5.47	4.93	4.88	5.42	5.52	5.53	6.97	7.92	7.17	6.73	6.46	5.98	5.81	6.34	6.57	6.43	6.62	6.03	5.30	5.41	5.33	5.29	5.49	5.40	5.48	5.76	5.98	5.64	5.20	5.18	5.35	5.50	5.50	5.47	5.61	5.19	4.67	5.05	5.54	5.82	6.04	6.08	5.93	5.48	5.14	5.47	6.05	6.20	5.75	5.45	5.61	5.53	5.41	5.41	5.76	6.18	6.18	
5.76	5.76	5.76	5.76	5.76	5.76	5.76	5.76	5.76	5.76	5.76	5.76	5.76	5.76	5.76	5.76	5.76	5.76	5.76	5.76	5.76	5.76	5.76	5.76	5.76	5.76	5.76	5.76	5.76	5.76	5.76	5.76	5.76	5.76	5.75	5.75	5.75	5.75	5.74	5.74	5.74	5.77	5.77	5.76	5.75	5.77	5.76	5.73	5.73	5.75	5.75	5.76	5.77	5.78	5.75	5.70	6.06	6.60	6.57	6.35	5.93	5.87	6.26	6.08	5.47	4.94	5.14	5.61	5.62	5.70	5.91	5.88	5.20	4.53	4.48	4.76	4.83	5.61	6.99	6.89	6.65	6.99	7.00	5.83	5.33	5.92	6.06	6.41	6.61	5.92	5.60	5.60	5.35	5.58	5.80	5.61	5.53	6.03	6.08	5.43	5.20	5.24	5.40	5.56	5.53	5.62	5.56	4.93	4.68	5.03	5.48	5.90	5.90	5.74	5.62	5.43	5.58	5.98	6.21	5.76	5.20	5.53	5.65	5.46	5.49	5.68	5.88	5.88	
5.76	5.76	5.76	5.76	5.76	5.76	5.76	5.76	5.76	5.76	5.76	5.76	5.76	5.76	5.76	5.76	5.76	5.76	5.76	5.76	5.76	5.76	5.76	5.76	5.76	5.76	5.76	5.76	5.76	5.76	5.76	5.76	5.76	5.76	5.76	5.76	5.75	5.75	5.75	5.75	5.74	5.74	5.76	5.77	5.75	5.76	5.77	5.75	5.73	5.74	5.74	5.73	5.72	5.76	5.75	5.90	6.17	6.35	6.54	6.69	6.73	6.55	6.60	6.59	6.03	5.11	4.88	5.39	5.60	5.69	5.96	6.25	6.38	5.87	4.94	4.76	4.97	5.67	6.57	6.71	6.48	6.74	7.64	7.33	6.03	5.43	5.21	5.31	5.76	5.58	5.19	5.24	5.03	5.25	5.99	6.13	5.79	5.96	6.04	5.54	5.21	5.17	5.18	5.18	5.21	5.16	5.28	5.19	4.82	4.73	5.00	5.65	5.95	5.62	5.29	5.44	5.79	5.93	6.28	6.23	5.30	5.21	5.63	5.64	5.77	5.96	6.02	6.02	
5.76	5.76	5.76	5.76	5.76	5.76	5.76	5.76	5.76	5.76	5.76	5.76	5.76	5.76	5.76	5.76	5.76	5.76	5.76	5.76	5.76	5.76	5.76	5.76	5.76	5.76	5.76	5.76	5.76	5.76	5.76	5.76	5.76	5.76	5.76	5.76	5.76	5.76	5.75	5.75	5.75	5.74	5.75	5.76	5.76	5.76	5.76	5.74	5.73	5.73	5.72	5.71	5.67	5.69	5.60	5.85	6.43	6.50	6.17	6.07	6.33	6.32	6.26	6.57	6.51	5.77	5.35	5.41	5.59	5.64	5.74	6.05	6.47	6.88	6.46	5.80	5.65	5.91	6.40	6.60	6.09	5.74	6.71	7.44	7.12	6.50	5.80	5.67	5.84	5.82	5.61	5.32	4.88	4.62	5.25	5.99	6.18	6.50	6.37	5.58	4.93	4.68	4.85	5.34	5.64	5.31	5.31	5.46	5.35	5.04	4.62	4.84	5.64	5.76	5.06	5.17	5.76	5.74	6.12	6.53	5.73	5.15	5.41	5.64	5.74	5.95	6.16	6.16	
5.76	5.76	5.76	5.76	5.76	5.76	5.76	5.76	5.76	5.76	5.76	5.76	5.76	5.76	5.76	5.76	5.76	5.76	5.76	5.76	5.76	5.76	5.76	5.76	5.76	5.76	5.76	5.76	5.76	5.76	5.76	5.76	5.76	5.76	5.76	5.76	5.76	5.76	5.76	5.75	5.75	5.75	5.74	5.74	5.74	5.75	5.76	5.73	5.71	5.70	5.70	5.67	5.62	5.56	5.45	5.58	6.28	6.76	6.18	5.64	5.86	6.09	5.92	6.07	6.26	5.78	5.71	5.73	5.71	5.62	5.36	5.39	5.44	5.90	6.44	6.47	6.32	5.85	5.69	6.06	6.01	5.48	5.94	6.94	7.13	7.20	7.26	7.32	7.30	7.45	7.32	6.38	5.57	5.00	4.92	5.47	6.12	6.86	7.28	6.78	5.90	5.18	4.77	5.26	5.99	5.59	5.18	5.20	5.50	5.69	4.98	4.28	4.68	5.41	4.98	4.93	5.52	5.42	5.89	6.64	6.23	5.51	5.37	5.63	5.71	5.83	6.06	6.06	
5.76	5.76	5.76	5.76	5.76	5.76	5.76	5.76	5.76	5.76	5.76	5.76	5.76	5.76	5.76	5.76	5.76	5.76	5.76	5.76	5.76	5.76	5.76	5.76	5.76	5.76	5.76	5.76	5.76	5.76	5.76	5.76	5.76	5.76	5.76	5.76	5.76	5.76	5.76	5.76	5.75	5.75	5.75	5.74	5.74	5.74	5.75	5.74	5.73	5.70	5.67	5.63	5.57	5.41	5.21	5.25	5.75	6.75	6.84	5.97	5.70	6.05	6.21	6.16	5.88	5.15	5.07	5.71	6.01	5.83	5.41	5.08	4.85	4.46	4.27	4.78	5.76	5.84	5.39	5.61	5.94	5.45	5.23	6.34	7.06	6.97	7.00	7.36	7.28	7.38	8.15	7.96	6.93	6.24	5.72	5.49	5.91	6.65	7.27	7.46	7.17	6.35	5.41	5.32	6.01	5.89	5.11	4.79	5.06	5.81	5.87	4.96	4.37	4.70	4.63	4.68	5.27	4.98	5.13	6.05	6.24	5.73	5.35	5.51	5.63	5.75	5.95	5.95	
5.76	5.76	5.76	5.76	5.76	5.76	5.76	5.76	5.76	5.76	5.76	5.76	5.76	5.76	5.76	5.76	5.76	5.76	5.76	5.76	5.76	5.76	5.76	5.76	5.76	5.76	5.76	5.76	5.76	5.76	5.76	5.76	5.76	5.76	5.76	5.76	5.76	5.76	5.76	5.76	5.76	5.75	5.75	5.75	5.74	5.74	5.73	5.73	5.72	5.70	5.67	5.61	5.53	5.33	4.89	4.63	4.83	5.84	7.14	6.73	5.72	5.76	6.50	7.17	6.74	5.38	4.55	5.02	5.71	5.74	5.53	5.08	4.77	4.42	3.93	3.91	4.84	5.57	5.12	5.38	5.79	5.21	4.29	4.52	5.88	5.81	5.43	5.96	5.95	5.61	6.63	7.76	7.48	6.92	6.44	5.56	5.22	6.08	6.78	6.90	7.16	6.83	6.13	6.01	6.41	6.53	5.70	5.13	5.03	5.35	5.85	5.69	5.09	4.79	4.55	4.40	5.00	5.04	4.74	5.12	5.41	5.27	5.24	5.51	5.59	5.69	5.85	5.85	
5.76	5.76	5.76	5.76	5.76	5.76	5.76	5.76	5.76	5.76	5.76	5.76	5.76	5.76	5.76	5.76	5.76	5.76	5.76	5.76	5.76	5.76	5.76	5.76	5.76	5.76	5.76	5.76	5.76	5.76	5.76	5.76	5.76	5.76	5.76	5.76	5.76	5.76	5.76	5.76	5.76	5.76	5.75	5.75	5.75	5.74	5.73	5.73	5.71	5.70	5.66	5.62	5.52	5.37	5.03	4.69	4.36	4.63	6.28	7.20	6.51	5.70	5.80	7.06	7.70	6.51	5.18	4.96	5.58	5.81	5.61	5.40	5.17	5.26	5.05	4.59	4.83	5.31	4.87	5.31	6.12	5.68	4.42	3.88	5.05	5.10	4.79	5.32	5.50	5.10	5.28	6.27	6.45	6.31	6.32	5.71	4.91	5.32	6.26	6.46	6.69	6.74	6.30	6.12	6.51	6.82	6.38	5.86	5.66	5.57	5.69	5.78	5.52	5.16	4.76	4.32	4.57	5.02	4.97	5.10	5.11	4.77	4.98	5.55	5.79	5.94	6.10	6.10	
5.76	5.76	5.76	5.76	5.76	5.76	5.76	5.76	5.76	5.76	5.76	5.76	5.76	5.76	5.76	5.76	5.76	5.76	5.76	5.76	5.76	5.76	5.76	5.76	5.76	5.76	5.76	5.76	5.76	5.76	5.76	5.76	5.76	5.76	5.76	5.76	5.76	5.76	5.76	5.76	5.76	5.76	5.76	5.75	5.75	5.75	5.74	5.74	5.72	5.70	5.67	5.63	5.56	5.46	5.30	5.12	4.63	4.27	4.98	6.10	6.41	5.88	5.04	5.52	7.22	6.99	5.73	5.30	5.90	6.41	6.18	5.96	5.73	5.93	6.09	5.90	5.66	5.26	4.94	5.26	6.16	6.25	4.85	4.06	4.93	5.21	4.96	5.12	5.40	5.23	5.24	5.83	5.72	5.64	5.99	5.83	5.13	5.05	5.66	5.90	6.03	6.39	6.41	6.21	6.58	6.88	6.82	6.82	6.68	6.36	6.12	6.06	5.82	5.56	5.31	4.92	4.70	4.77	4.89	5.46	5.55	4.83	4.85	5.36	5.62	5.97	6.29	6.29	
5.76	5.76	5.76	5.76	5.76	5.76	5.76	5.76	5.76	5.76	5.76	5.76	5.76	5.76	5.76	5.76	5.76	5.76	5.76	5.76	5.76	5.76	5.76	5.76	5.76	5.76	5.76	5.76	5.76	5.76	5.76	5.76	5.76	5.76	5.76	5.76	5.76	5.76	5.76	5.76	5.76	5.76	5.76	5.76	5.75	5.75	5.74	5.74	5.72	5.71	5.68	5.65	5.59	5.52	5.41	5.29	4.99	4.58	4.59	4.89	5.24	5.50	4.93	4.68	6.19	6.84	5.83	5.25	5.72	6.31	6.32	6.15	5.58	5.49	5.90	6.28	6.33	5.28	4.87	5.40	6.11	6.39	5.22	4.53	4.97	5.14	4.91	4.89	5.04	5.00	5.27	5.93	5.74	5.29	5.55	5.76	5.46	5.32	5.71	5.58	5.04	5.34	5.97	6.19	6.45	6.77	6.81	6.98	7.30	7.20	6.94	7.04	6.94	6.48	6.19	5.99	5.81	5.26	4.65	5.18	5.68	5.03	4.83	5.21	5.39	5.81	6.23	6.23	
5.76	5.76	5.76	5.76	5.76	5.76	5.76	5.76	5.76	5.76	5.76	5.76	5.76	5.76	5.76	5.76	5.76	5.76	5.76	5.76	5.76	5.76	5.76	5.76	5.76	5.76	5.76	5.76	5.76	5.76	5.76	5.76	5.76	5.76	5.76	5.76	5.76	5.76	5.76	5.76	5.76	5.76	5.76	5.76	5.75	5.75	5.75	5.74	5.73	5.72	5.70	5.67	5.63	5.58	5.51	5.41	5.24	5.07	4.97	4.96	5.03	5.12	4.93	4.54	5.17	6.06	5.63	4.89	5.00	5.36	5.40	5.71	5.29	4.81	4.98	5.58	6.20	5.57	4.76	5.01	5.89	6.36	5.93	5.34	5.43	5.46	5.13	5.16	5.13	4.94	5.06	5.68	5.85	5.47	5.38	5.57	5.61	5.49	5.90	6.04	5.30	4.98	5.31	5.59	5.58	5.70	5.74	5.75	6.24	6.71	6.67	6.87	7.19	7.21	7.06	6.95	7.10	6.87	6.06	5.95	6.37	6.05	5.47	5.41	5.41	5.65	5.98	5.98	
5.76	5.76	5.76	5.76	5.76	5.76	5.76	5.76	5.76	5.76	5.76	5.76	5.76	5.76	5.76	5.76	5.76	5.76	5.76	5.76	5.76	5.76	5.76	5.76	5.76	5.76	5.76	5.76	5.76	5.76	5.76	5.76	5.76	5.76	5.76	5.76	5.76	5.76	5.76	5.76	5.76	5.76	5.76	5.76	5.76	5.75	5.75	5.74	5.74	5.73	5.71	5.68	5.65	5.61	5.55	5.45	5.36	5.29	5.22	5.25	5.29	5.14	4.94	4.55	4.70	5.39	5.36	4.60	4.60	4.91	4.81	5.30	5.20	4.58	4.54	5.07	5.88	5.78	4.76	4.52	5.42	6.20	6.24	5.58	5.63	5.89	5.61	5.55	5.42	5.10	4.96	5.38	5.86	5.86	5.62	5.48	5.51	5.45	5.90	6.52	6.33	5.60	5.18	5.23	5.11	5.05	5.16	5.11	5.28	5.75	5.83	5.94	6.49	7.13	7.42	7.38	7.67	8.01	7.73	7.27	7.29	7.06	6.23	5.65	5.43	5.54	5.77	5.77	
