ncols        670
nrows        35
xllcorner    -2135655
yllcorner    2041515
cellsize     30.000000000000
NODATA_value -32768
222 223 223 224 225 226 229 233 239 244 250 251 248 245 241 241 243 250 259 267 274 283 291 295 296 293 289 286 283 278 270 265 262 259 256 252 249 247 249 254 259 263 268 269 269 269 269 269 269 268 270 272 274 276 277 278 280 283 286 291 293 292 291 289 287 285 285 285 284 284 283 282 281 279 277 275 273 271 269 268 268 268 267 264 264 265 266 268 270 271 272 273 275 277 278 280 280 281 288 297 307 316 322 331 339 342 340 333 330 326 320 316 314 310 313 320 327 331 334 337 341 345 349 353 362 369 372 373 369 363 355 351 348 346 344 344 345 345 346 347 348 349 350 352 352 354 355 357 357 359 361 363 364 366 367 369 370 370 370 368 367 364 358 363 368 373 376 379 382 387 389 391 393 394 393 389 383 378 369 365 366 368 368 365 358 348 336 323 312 310 316 322 331 346 358 360 350 341 342 342 334 326 320 311 299 289 277 264 272 283 288 294 298 299 302 299 291 281 276 271 268 266 271 280 280 273 265 249 232 210 191 170 150 144 145 151 156 163 173 190 207 215 217 221 222 220 223 224 233 252 265 281 306 331 359 380 392 401 401 388 371 372 371 376 386 393 391 384 382 387 389 389 389 393 397 395 399 406 412 418 424 430 434 435 437 438 439 438 436 434 431 429 428 426 425 423 423 422 423 424 425 426 427 428 430 432 432 433 433 433 436 438 440 443 445 448 451 455 461 462 457 453 451 449 447 445 444 444 445 445 445 445 445 443 443 444 445 445 444 444 445 446 447 448 448 447 446 446 446 446 447 447 448 449 449 450 451 451 453 455 457 457 458 458 459 458 458 457 457 457 457 457 457 456 455 456 457 456 456 457 460 461 460 460 460 460 458 457 458 460 460 461 463 464 465 466 469 472 477 480 481 479 477 475 474 474 476 482 487 490 492 490 487 480 476 474 473 473 474 475 481 487 490 489 485 481 478 476 474 475 473 464 460 455 453 451 459 467 477 487 495 497 492 489 482 482 489 499 508 519 530 535 537 537 534 531 525 511 505 504 501 498 499 499 494 485 475 469 465 462 456 452 450 448 447 447 447 442 439 441 447 452 458 465 479 493 509 522 531 539 542 533 520 510 502 495 491 494 500 500 498 499 506 514 525 533 539 544 547 550 556 559 560 558 554 549 547 546 546 547 554 561 563 562 554 547 541 531 522 514 511 508 505 502 498 494 490 487 487 494 500 504 505 499 494 488 487 488 489 487 483 481 483 486 488 492 495 498 504 515 525 534 540 548 557 562 562 554 546 538 532 526 518 511 506 502 502 503 507 510 518 525 526 526 523 517 514 510 507 503 497 488 480 477 474 471 469 467 466 469 473 479 487 495 502 506 507 502 495 491 494 503 515 520 515 507 504 509 513 516 518 520 520 522 525 537 550 562 564 565 564 562 557 548 540 533 526 522 523 523 519 512 503 501 498 493 493 494 496 498 499 502 503 501 500 502 512 521 523 519 514 508 504 500 503 502 503 505 506 507
222 223 223 224 225 227 229 233 237 243 249 250 248 245 240 241 246 253 261 269 276 284 290 291 290 286 281 276 271 267 261 257 255 252 249 246 244 247 251 254 257 262 266 268 269 269 269 268 268 268 269 271 273 274 276 278 280 283 286 289 291 291 289 287 285 284 284 284 283 283 283 282 281 279 277 275 273 271 269 267 266 266 265 263 263 265 266 268 270 271 272 270 273 275 276 278 279 281 289 300 309 319 327 335 342 344 340 334 330 323 319 318 314 308 314 322 328 332 336 340 344 348 353 358 364 369 373 371 367 360 352 348 345 343 343 344 345 346 347 348 349 350 351 352 353 354 355 357 359 361 362 363 365 366 368 369 369 369 368 365 361 357 359 366 370 374 378 381 384 389 391 393 393 392 391 387 383 379 372 365 362 359 362 360 356 350 344 331 311 297 305 310 323 337 347 352 342 325 324 324 318 311 306 297 287 280 273 257 260 270 279 287 289 291 293 292 285 277 271 265 261 260 266 276 283 281 268 249 231 211 191 167 149 141 142 147 155 163 170 176 184 196 201 209 224 224 231 248 258 280 300 311 319 346 372 386 397 404 408 400 383 386 384 384 399 407 405 397 386 396 403 403 397 392 390 391 394 401 411 419 424 429 431 433 434 436 438 438 436 433 430 428 427 425 423 422 420 421 422 424 425 426 427 429 431 434 434 434 434 434 436 438 441 443 446 449 452 456 461 462 456 454 451 450 448 447 445 444 445 445 445 445 444 444 444 445 446 446 445 444 445 446 447 449 449 448 446 446 446 446 447 447 448 449 450 450 451 451 452 456 457 458 458 458 458 458 458 457 457 457 457 457 457 456 454 454 454 455 457 461 463 464 463 462 461 462 461 459 459 461 461 461 463 465 466 466 469 473 479 488 486 480 477 477 476 476 481 488 492 495 495 491 486 481 476 474 473 473 475 480 485 490 496 501 496 487 479 476 472 470 468 464 459 454 451 450 455 463 472 481 490 491 486 481 477 477 483 490 500 510 522 528 529 526 523 521 514 503 497 497 495 494 493 492 486 477 470 464 461 456 451 451 450 448 447 449 451 446 439 439 441 446 451 461 475 489 503 515 520 527 539 532 519 510 503 497 495 496 500 503 504 506 508 510 514 522 528 532 537 541 548 554 555 556 555 552 552 552 550 549 557 563 563 561 554 546 540 532 523 513 510 507 505 502 499 493 489 487 485 486 491 494 497 496 491 487 485 485 485 484 481 480 483 486 489 492 496 500 511 525 536 544 550 557 563 564 559 550 543 536 530 524 518 511 509 508 508 508 509 511 515 521 525 526 523 517 513 504 500 498 496 492 490 483 476 473 471 469 466 466 469 474 481 488 492 495 496 494 489 487 490 498 505 507 503 499 500 504 509 511 512 513 513 521 527 536 544 552 555 555 557 556 553 549 538 528 522 526 529 529 526 521 516 510 501 495 492 493 495 497 498 499 499 499 500 505 511 511 510 504 500 498 500 502 503 505 506 507 509 511
222 222 223 224 226 227 230 233 237 244 248 246 246 245 241 243 249 256 263 271 277 283 286 285 282 278 272 266 263 259 254 250 248 246 243 244 246 250 253 254 255 259 264 267 269 269 269 267 267 268 269 270 272 273 276 278 281 283 285 287 289 290 288 285 283 283 283 283 283 282 282 281 280 278 277 275 272 270 269 267 266 265 263 262 263 264 266 268 269 270 270 269 270 273 275 277 279 282 289 298 309 317 327 336 343 344 339 331 325 318 316 316 311 307 313 321 327 332 337 341 346 350 356 363 368 371 373 370 365 356 350 345 342 343 344 346 347 348 349 350 350 351 351 352 353 354 356 359 361 363 363 364 365 367 368 368 368 367 364 360 355 356 365 369 371 375 379 382 385 389 392 392 391 390 387 384 382 379 373 367 361 355 354 354 352 349 345 333 315 295 293 299 311 325 339 344 336 317 305 306 303 295 290 286 277 267 263 255 250 260 270 280 281 283 285 284 278 271 264 260 256 255 264 277 285 284 267 248 230 210 193 169 147 141 141 147 160 177 193 202 207 216 231 252 254 254 262 275 283 301 321 335 344 358 377 389 399 405 412 409 399 402 402 401 407 413 412 408 400 406 412 411 406 397 393 394 391 397 410 418 423 427 429 430 432 434 435 436 435 432 429 428 425 422 420 419 419 420 422 424 425 426 427 428 433 437 436 435 434 434 436 438 441 443 445 449 452 455 459 461 456 455 453 451 450 448 446 445 445 446 446 446 446 446 446 446 446 447 446 445 445 447 448 449 449 448 447 446 446 446 447 448 448 450 451 451 451 451 454 456 457 458 458 458 458 458 458 457 458 457 458 458 457 456 454 453 454 456 458 463 464 464 464 464 464 466 466 465 463 462 464 465 465 466 468 468 470 473 477 488 484 477 475 478 481 483 489 493 498 499 498 491 486 483 477 475 474 475 481 488 493 494 492 493 494 489 478 474 468 463 463 462 459 457 455 451 452 458 463 470 480 484 477 472 471 473 478 487 495 506 517 519 516 513 511 508 502 495 489 488 487 487 490 486 478 471 465 462 459 456 453 452 451 448 447 449 452 450 441 438 438 442 450 463 474 486 497 504 509 516 527 528 520 511 505 499 497 497 499 506 511 515 517 517 516 520 523 528 535 536 544 550 551 555 557 557 558 558 555 555 560 563 563 561 554 547 541 533 525 514 510 507 503 501 497 492 488 487 485 485 486 488 492 492 490 487 484 482 481 480 479 479 483 486 489 493 497 505 517 530 543 555 565 570 571 566 559 550 540 534 527 522 517 513 513 514 514 514 512 511 513 518 523 526 524 515 509 502 501 503 502 502 498 487 477 474 473 472 468 464 465 469 473 478 482 484 485 482 481 483 487 490 493 494 494 495 498 502 506 508 509 510 512 519 525 529 534 542 549 549 552 551 547 544 537 528 530 539 543 540 532 527 520 512 503 496 492 493 494 495 496 497 497 498 500 501 501 501 500 498 498 499 502 505 507 508 510 510 511 516
221 222 223 225 226 227 230 234 238 242 242 241 242 244 242 244 250 257 263 269 276 279 279 274 271 269 264 257 254 251 246 242 241 243 243 245 248 252 256 257 257 258 262 266 267 268 268 266 266 267 268 269 270 273 276 278 281 283 284 285 286 289 287 283 282 281 281 282 281 281 281 280 280 280 279 277 272 269 268 267 266 264 263 261 262 263 265 267 268 270 269 268 270 271 273 276 278 281 286 294 302 315 327 336 343 343 337 332 325 318 313 309 306 307 314 320 327 332 337 341 347 352 359 366 370 373 372 369 363 354 348 342 342 344 346 348 349 350 351 351 352 352 352 353 354 355 357 360 363 365 364 364 365 366 367 368 366 363 358 354 353 361 367 370 373 376 380 382 386 389 392 392 389 386 383 380 379 376 371 366 359 355 352 350 349 346 343 328 312 290 284 292 303 318 331 336 330 315 296 290 289 282 274 271 264 256 254 247 244 253 260 264 268 274 276 274 271 263 256 254 251 254 267 279 286 283 264 248 228 211 193 168 148 141 142 148 166 186 209 222 232 248 260 271 278 279 282 292 302 318 338 358 365 367 377 388 397 404 410 412 409 411 412 411 412 415 415 413 409 412 416 415 409 401 396 398 392 392 403 412 419 424 426 428 430 432 433 434 433 430 429 427 422 418 416 417 419 420 423 424 425 426 427 430 434 438 438 436 434 435 437 438 440 442 445 449 452 454 457 457 457 456 454 452 451 449 447 447 446 446 448 450 448 448 447 447 446 447 447 447 446 447 449 449 450 450 448 446 446 446 447 448 449 450 451 451 451 452 453 455 457 457 457 457 457 457 457 457 458 458 458 457 457 455 452 452 458 460 459 461 462 463 464 466 467 468 469 469 466 465 466 466 467 467 469 470 471 473 475 477 477 475 476 480 485 489 491 495 500 501 501 495 489 486 481 476 475 476 484 491 499 498 487 484 486 486 479 472 466 463 463 462 462 462 462 455 451 454 456 460 468 474 470 465 466 472 480 488 499 509 515 512 503 499 497 494 490 486 480 476 477 478 481 476 473 467 463 461 460 459 457 455 452 449 445 445 450 453 445 438 437 441 453 464 472 481 487 488 496 507 521 528 525 516 507 500 498 497 500 509 517 524 528 528 528 529 535 538 540 541 545 549 550 556 560 563 564 564 561 560 562 563 563 559 554 548 541 533 524 514 510 507 503 500 497 494 490 488 486 485 485 487 488 490 489 486 483 478 477 478 477 480 483 487 491 495 500 508 519 532 544 558 569 576 575 569 562 554 544 535 526 522 518 517 519 521 521 519 518 516 514 517 522 525 526 519 511 508 510 514 510 503 495 486 480 480 481 479 474 467 462 464 465 467 470 472 473 474 477 481 484 485 486 486 488 493 498 501 504 507 509 511 516 522 524 527 536 546 551 553 555 552 543 535 533 532 539 551 552 543 534 528 521 511 501 496 492 492 493 494 494 495 496 496 497 496 496 496 497 498 498 499 505 511 513 514 516 519 518 523
221 222 223 224 226 227 230 233 237 238 238 238 240 242 241 243 250 256 260 266 271 271 268 263 261 259 255 249 245 243 240 240 241 243 245 245 247 255 260 264 261 259 262 264 266 266 266 265 266 267 267 268 270 273 275 278 280 282 283 283 284 287 286 281 280 280 281 281 281 280 280 281 281 281 281 279 274 269 268 267 265 264 262 261 261 262 264 266 268 269 268 267 269 269 271 274 277 279 284 291 303 316 327 335 339 337 333 329 322 316 309 305 303 308 318 323 330 335 339 343 348 353 360 367 371 372 370 367 360 353 345 341 343 345 349 351 352 352 353 353 353 353 353 354 355 357 359 362 365 366 366 362 363 365 366 366 363 359 354 352 356 364 368 370 373 376 379 382 385 389 391 392 388 383 378 375 373 371 368 362 355 353 349 348 348 346 340 324 304 284 272 282 297 309 320 325 323 313 297 281 275 270 262 257 252 247 247 243 234 244 250 253 258 264 264 265 262 255 250 247 246 255 269 281 287 279 261 246 227 211 194 169 148 141 141 148 170 192 215 230 242 253 263 274 286 298 306 310 321 337 355 370 376 377 375 385 394 403 407 411 412 412 414 416 417 418 418 416 414 416 417 415 411 405 402 405 397 388 393 405 414 419 423 425 428 429 430 431 430 429 428 425 417 415 415 417 419 421 423 425 425 426 427 430 434 437 438 437 434 435 436 438 439 442 445 448 451 453 455 456 457 457 456 453 451 449 448 447 448 448 450 452 450 448 446 446 446 447 448 448 448 448 449 450 451 451 449 447 446 447 448 448 450 451 452 451 451 452 453 454 455 456 456 456 456 456 456 456 457 457 458 457 456 453 451 457 463 463 461 459 460 462 463 467 469 470 470 470 468 467 467 467 468 469 471 473 473 474 474 475 475 476 478 482 487 490 491 493 495 497 498 495 491 487 482 477 475 478 485 492 500 499 488 477 475 475 472 468 464 462 463 464 464 465 463 457 450 449 450 452 458 463 461 460 464 473 482 492 504 513 515 509 498 491 483 479 477 473 469 467 471 480 482 477 472 468 465 464 462 462 462 458 452 448 442 440 444 448 445 438 437 441 451 460 466 471 476 481 490 505 520 530 533 523 511 504 500 498 503 513 520 529 535 539 540 541 544 546 548 551 553 555 555 558 563 568 568 567 565 564 564 563 561 556 551 545 538 529 521 513 510 509 507 503 501 496 491 488 487 486 485 486 487 488 489 486 481 477 476 476 476 479 483 487 492 498 503 511 522 534 546 556 568 577 576 570 563 555 547 538 528 523 521 523 525 526 526 525 525 524 520 520 523 525 525 520 512 520 520 516 508 502 494 490 489 489 489 487 481 473 465 462 461 461 462 468 473 478 481 484 483 484 485 485 487 491 496 500 503 507 510 514 521 527 531 536 541 549 554 559 561 559 550 540 535 533 540 548 548 540 533 528 518 506 499 496 492 491 492 493 493 494 494 494 495 495 496 497 498 499 499 502 510 517 522 526 528 530 528 528
220 222 223 225 226 227 228 231 233 235 235 235 237 240 239 241 247 252 256 262 265 262 257 253 251 249 247 244 240 239 240 241 242 243 244 244 244 254 263 269 263 260 261 263 264 264 264 264 265 266 267 268 270 272 275 277 279 281 281 281 282 286 286 284 282 282 282 281 281 281 282 282 283 283 282 281 276 271 268 267 266 264 262 260 260 261 263 265 267 268 267 266 267 268 271 273 276 279 284 294 303 315 325 332 333 327 324 320 314 309 303 300 302 307 318 325 331 338 343 347 351 356 363 368 371 371 368 364 358 350 342 340 343 347 352 354 354 354 354 354 354 354 354 356 358 359 362 363 364 365 364 362 361 362 363 362 360 356 351 354 359 365 368 370 373 376 378 381 385 389 392 392 387 381 374 367 365 364 361 355 347 345 342 345 351 348 342 325 303 280 262 275 289 300 310 314 313 308 294 277 265 261 255 246 242 238 240 236 227 231 238 241 250 254 256 257 255 250 245 242 243 256 270 283 287 276 257 243 227 210 193 168 148 142 142 148 172 197 220 234 245 256 263 272 283 302 315 324 335 349 360 372 379 386 388 388 393 401 405 409 412 414 418 421 422 423 423 421 420 421 421 418 415 410 409 414 404 389 390 402 409 416 420 423 426 427 430 430 429 428 427 419 414 414 416 418 419 422 424 425 426 427 428 430 433 435 436 434 434 435 436 438 439 440 443 446 449 451 453 455 456 458 457 454 453 449 448 450 451 452 455 453 448 448 449 448 447 447 448 450 450 450 451 451 451 451 449 448 447 448 449 450 450 452 452 451 452 452 452 453 453 454 455 455 455 455 456 456 456 457 457 457 457 454 450 459 464 461 458 457 459 462 464 469 472 472 471 472 471 470 470 470 471 472 473 475 476 474 474 475 475 476 479 484 488 490 490 489 488 491 493 491 488 485 480 477 475 477 484 491 499 499 492 480 471 464 464 464 462 460 460 463 465 464 461 455 449 440 442 447 453 455 455 457 464 475 484 494 509 516 515 506 496 488 479 471 467 464 462 465 474 487 487 479 474 472 469 465 464 466 465 460 454 449 443 439 438 439 441 438 437 441 448 452 456 462 466 476 488 503 517 529 537 528 513 507 503 500 503 515 523 532 542 550 552 550 552 555 558 561 562 562 561 562 570 575 574 572 570 569 566 561 559 554 548 540 532 525 520 515 512 513 512 506 501 497 491 488 489 487 486 484 485 486 487 484 479 477 475 474 476 480 484 488 494 500 507 515 525 534 544 554 562 575 575 568 560 553 545 536 527 523 524 528 530 532 531 529 528 527 524 522 523 525 526 524 525 529 527 521 514 509 503 499 495 493 490 489 483 479 472 465 461 460 467 476 483 489 493 497 500 499 497 493 490 492 496 499 500 508 513 518 524 532 539 546 550 553 557 562 564 564 561 553 545 537 536 542 543 539 532 526 512 500 498 495 492 491 491 492 492 493 493 494 494 496 497 499 500 502 503 506 511 519 527 536 538 537 536 537
221 222 223 224 225 226 226 228 230 232 232 232 234 237 238 240 243 246 251 256 256 252 248 244 243 243 242 239 237 239 241 242 243 244 245 246 245 252 259 262 259 260 261 262 263 263 264 264 265 266 267 268 269 271 274 277 278 280 280 281 282 285 286 287 287 286 285 285 284 285 285 284 284 283 282 280 276 272 269 267 266 264 262 260 259 260 261 262 264 265 265 266 266 268 270 273 276 279 284 291 299 308 317 325 326 316 309 306 300 299 296 299 303 307 316 325 332 341 346 350 354 360 366 370 369 368 365 360 355 349 342 339 343 348 354 355 356 355 356 356 355 355 356 358 361 363 363 360 360 360 359 358 357 358 358 358 357 353 349 355 360 365 368 370 373 375 377 379 385 389 392 392 386 379 371 362 357 355 353 347 340 339 341 349 355 350 341 323 305 280 255 266 279 290 298 301 300 297 287 273 261 253 249 242 236 229 231 232 223 220 222 230 239 242 248 251 249 245 241 237 242 254 268 282 284 270 254 240 223 206 190 163 146 142 142 153 178 201 223 237 251 259 267 273 279 295 312 327 339 350 360 369 376 384 390 396 397 399 402 408 412 415 418 422 425 425 425 425 424 425 424 422 418 414 413 417 408 394 388 396 405 415 419 421 423 425 428 429 427 424 420 415 414 415 416 418 419 422 423 425 426 427 428 430 431 431 431 432 434 436 437 438 439 440 442 445 448 450 452 454 456 458 458 455 454 451 451 453 455 456 458 449 448 450 450 450 449 448 448 450 451 451 452 452 452 452 450 449 449 450 450 451 451 452 451 452 452 452 452 452 452 453 454 455 455 455 455 456 457 457 457 457 458 455 450 458 463 460 456 457 461 464 467 472 475 473 472 473 473 473 473 473 474 474 474 476 476 474 474 477 478 476 479 484 488 488 488 486 485 487 489 488 485 480 477 476 475 476 481 487 493 493 489 483 473 464 462 461 460 457 456 458 461 460 457 451 446 440 439 444 448 450 450 455 463 476 485 496 511 515 512 502 492 486 476 469 461 456 460 467 477 488 488 484 479 475 472 470 469 471 468 463 457 451 446 441 438 438 437 436 436 439 443 449 451 457 462 475 489 502 510 522 528 525 515 509 505 504 507 514 523 534 544 555 561 562 562 563 565 570 570 568 567 569 575 581 581 577 575 573 568 564 560 554 548 537 530 524 522 521 521 518 514 507 500 498 496 494 493 490 486 483 482 483 484 480 476 473 472 476 478 481 486 489 495 501 508 516 523 531 539 550 559 570 572 566 559 550 541 531 523 523 529 534 536 537 535 531 528 526 524 523 524 525 527 528 529 529 528 527 523 518 512 505 499 491 485 481 478 476 470 463 460 465 477 486 495 503 509 514 516 516 516 512 506 502 504 509 509 510 514 521 527 532 541 550 555 558 561 564 567 567 565 562 555 546 540 543 541 537 532 524 518 508 501 497 493 491 491 491 492 492 492 493 495 497 499 503 508 511 515 518 520 521 525 533 538 539 541 544
221 222 224 225 226 226 226 228 229 230 231 231 233 235 237 239 240 242 245 247 246 243 241 241 240 240 238 237 238 240 242 243 245 246 248 249 248 252 256 258 257 258 259 261 262 263 265 265 265 266 267 268 268 271 274 276 277 278 280 281 282 284 286 287 289 289 289 289 289 288 286 285 284 283 281 279 276 272 270 268 266 264 264 262 259 258 259 260 262 263 264 265 266 267 269 272 275 278 282 287 293 300 309 319 322 313 296 287 287 292 297 301 305 312 320 328 335 343 347 352 357 363 367 368 367 365 361 356 353 348 343 339 342 347 353 355 356 356 356 356 357 358 359 362 364 366 365 360 355 356 356 355 355 354 355 355 353 350 350 355 360 365 368 370 372 374 376 379 385 390 393 390 385 378 370 358 349 345 345 339 332 336 346 354 358 349 334 319 304 282 257 258 271 282 287 288 287 284 278 266 257 248 243 238 232 224 220 224 222 216 217 223 227 231 243 247 243 238 235 233 240 252 266 277 276 261 249 236 217 199 183 158 144 142 142 159 186 208 225 239 252 260 267 273 278 291 306 321 334 345 354 362 370 379 387 399 402 403 404 409 412 414 417 420 424 425 426 427 427 427 427 425 422 419 417 417 412 401 390 391 404 413 417 418 420 423 426 428 423 416 415 414 415 416 417 418 420 422 423 425 426 427 427 428 429 428 429 432 435 438 439 439 439 440 441 445 448 450 452 454 456 458 459 456 455 456 455 457 457 460 458 448 450 452 451 451 451 450 449 449 452 454 454 453 451 452 449 450 450 450 452 452 452 453 452 452 452 451 451 451 452 452 453 454 454 454 454 455 456 457 456 456 456 454 451 456 458 456 455 458 462 469 473 475 476 474 473 474 474 474 474 475 476 476 475 475 474 473 474 483 485 479 480 483 485 485 485 484 483 483 484 483 480 477 475 475 475 475 478 483 485 485 484 482 477 469 467 465 460 452 452 452 451 453 452 449 444 439 438 440 443 446 449 454 463 474 484 495 507 510 505 497 487 479 473 467 455 451 460 468 478 488 491 490 490 486 477 476 477 476 472 465 459 454 450 444 439 439 437 435 436 439 445 453 461 467 471 479 488 496 502 515 521 520 515 510 507 508 511 515 523 532 542 556 565 572 571 566 566 573 575 571 569 571 577 586 588 585 581 576 571 566 562 556 548 538 533 527 525 527 526 521 513 506 501 501 501 501 498 493 487 482 477 482 484 480 476 471 475 477 479 482 486 490 494 500 505 512 518 525 531 544 556 564 566 564 557 549 538 534 530 529 536 540 541 539 536 531 527 525 523 522 523 526 527 528 529 529 528 527 526 522 517 511 502 492 480 475 473 468 463 458 462 473 485 495 504 512 519 522 526 528 528 524 518 514 516 521 518 513 512 519 526 531 541 551 558 563 566 571 571 569 566 563 559 554 550 546 542 537 537 536 529 519 506 498 494 491 490 491 491 492 492 494 497 500 507 515 522 523 526 528 526 525 524 528 535 537 540 544
221 222 224 225 227 227 227 228 228 229 230 230 232 235 237 237 239 239 239 240 239 239 239 239 238 237 236 236 239 241 243 245 248 251 252 252 251 251 254 255 256 257 259 260 262 264 266 267 267 267 267 268 269 271 274 277 278 279 279 281 282 284 286 287 290 292 292 292 291 287 282 282 282 282 280 278 275 272 269 268 266 266 268 266 262 257 257 259 260 261 263 264 265 267 268 271 274 277 279 281 287 294 302 311 315 314 298 281 284 295 299 304 308 315 322 330 337 343 349 354 358 362 365 365 363 360 356 352 350 347 343 339 340 345 351 353 354 355 356 357 357 357 359 362 365 367 365 358 353 353 354 353 352 352 352 351 349 347 351 355 361 366 368 370 372 374 376 380 386 391 391 387 382 376 368 357 345 335 334 333 328 340 353 358 357 343 325 313 300 280 256 252 265 275 277 277 275 274 269 260 251 244 235 232 228 222 216 214 216 213 208 214 216 224 234 238 234 229 229 230 239 253 266 272 263 249 238 226 207 189 172 152 142 142 146 167 193 210 223 236 247 254 263 275 286 294 303 316 327 336 344 354 366 379 389 399 404 406 408 410 412 413 415 417 422 425 426 427 429 430 429 427 425 423 421 420 417 407 396 390 398 408 413 415 417 419 422 423 416 411 414 415 416 416 418 419 420 422 423 424 425 426 426 427 427 428 430 433 436 438 440 440 439 440 441 445 447 450 452 454 455 457 459 458 457 458 460 458 458 461 456 450 452 452 453 453 452 451 450 449 453 454 455 455 449 450 450 451 451 452 454 454 454 454 451 450 450 450 450 450 451 452 453 454 454 452 453 454 455 456 456 455 454 453 451 453 454 454 456 460 466 472 476 478 478 476 473 474 475 474 475 475 476 476 476 475 474 473 474 485 489 485 482 482 482 482 482 481 479 477 478 478 476 475 474 474 475 475 476 481 484 482 478 478 478 481 479 471 463 454 451 449 446 446 446 444 442 439 437 438 440 444 448 453 461 472 483 493 502 502 496 491 486 477 470 463 452 451 459 467 477 489 492 491 488 486 478 480 483 481 476 469 462 456 451 447 445 446 442 437 436 441 447 455 464 468 476 480 485 490 498 507 512 513 511 507 507 509 514 519 523 531 542 556 567 572 569 562 560 563 570 568 567 569 575 584 589 591 587 579 573 569 563 556 549 544 537 531 530 530 527 522 514 509 506 505 503 503 501 496 490 482 476 482 489 484 475 472 477 478 479 482 486 489 491 496 502 507 513 520 527 538 549 557 562 562 556 548 540 541 541 539 543 546 545 541 537 530 524 523 521 521 522 526 528 528 528 527 525 523 522 521 517 513 506 496 489 485 477 467 461 457 466 480 491 501 509 517 524 529 534 537 536 531 525 521 522 525 523 519 514 517 523 529 538 550 559 565 571 575 573 570 567 564 561 556 552 547 545 543 544 543 537 524 511 500 495 491 490 490 491 492 494 497 499 508 519 526 529 529 528 528 527 526 527 529 531 532 538 542
221 223 224 225 226 227 227 227 227 228 229 230 232 235 236 236 236 235 234 234 235 237 237 236 235 234 235 237 239 242 244 247 252 256 256 256 254 252 253 254 256 257 259 261 263 265 267 268 269 268 268 269 270 273 276 279 280 280 280 281 282 284 285 287 289 292 293 293 290 283 280 280 281 281 279 276 274 271 268 267 268 269 269 269 267 259 256 257 259 260 261 263 265 267 268 271 273 275 277 279 283 290 296 302 305 307 294 278 285 294 302 307 312 318 324 331 339 345 351 355 358 360 361 361 359 356 353 350 347 346 343 339 339 344 350 352 354 355 357 356 356 355 355 359 363 365 363 357 353 352 352 351 350 349 349 347 346 349 352 356 361 366 368 370 372 374 377 381 387 391 390 385 379 372 364 354 342 329 325 323 327 342 354 360 356 338 316 303 292 279 251 244 257 267 267 262 263 267 263 255 246 241 235 231 226 220 212 206 207 209 204 205 211 219 225 228 227 224 222 225 237 251 263 266 253 233 220 211 196 177 160 146 142 142 150 171 192 206 215 226 238 248 261 275 290 299 306 313 321 328 341 355 374 385 392 400 404 408 411 412 413 415 416 418 422 425 426 427 429 431 430 429 427 426 425 425 420 412 400 391 391 399 408 411 414 417 417 416 413 409 413 416 417 417 418 419 421 422 423 424 425 427 427 428 428 429 431 434 437 439 440 441 441 440 441 444 447 450 452 453 455 457 459 459 459 459 460 459 459 459 454 452 454 454 454 454 453 452 451 448 455 459 457 455 450 449 451 452 453 455 456 457 456 453 450 448 448 449 449 450 451 452 453 453 453 452 452 453 454 455 455 453 453 452 451 451 451 454 458 463 467 473 477 479 479 477 474 474 475 475 476 476 477 477 477 476 474 474 474 481 487 483 482 482 481 480 478 477 476 474 474 474 474 473 473 473 474 475 478 483 486 482 475 474 473 487 486 474 464 458 452 448 442 439 440 440 439 438 436 437 439 442 446 451 458 467 480 490 495 492 486 482 477 472 467 459 450 450 457 466 478 490 492 490 483 476 475 484 489 488 481 471 464 457 451 451 452 452 450 440 435 440 442 450 458 465 471 475 482 490 493 496 498 500 501 501 504 509 517 525 530 537 544 558 565 567 563 556 554 559 564 564 562 561 568 578 589 597 594 585 577 571 564 560 555 548 540 535 535 533 528 522 516 513 511 507 502 501 501 498 490 482 475 480 489 487 475 469 475 476 477 481 484 486 488 494 500 505 510 517 525 534 543 551 557 562 558 552 549 549 550 549 550 551 548 541 535 525 523 522 520 518 519 525 527 528 527 525 522 518 516 516 515 514 509 503 499 496 487 477 464 458 469 483 494 502 510 517 524 530 536 540 539 535 528 523 524 526 526 525 522 520 522 527 534 547 556 563 571 576 574 571 567 564 561 558 554 549 550 551 551 549 542 528 515 502 496 491 489 490 491 493 496 500 509 518 526 528 528 527 525 524 524 523 524 526 525 526 535 538
222 223 224 225 226 227 227 226 226 228 229 230 233 235 236 234 232 230 229 230 233 234 235 233 233 233 235 238 240 242 245 249 254 257 257 257 256 255 254 255 256 258 260 262 263 265 267 269 270 270 270 271 272 275 278 281 281 281 282 283 284 285 285 285 289 291 293 292 288 284 280 279 279 280 278 275 272 270 268 268 269 269 271 271 271 265 256 256 257 259 261 262 264 266 268 270 272 274 276 278 281 286 290 293 294 292 282 278 284 292 299 306 312 319 326 333 341 346 352 355 357 357 357 358 355 352 350 346 344 343 341 337 342 346 351 353 355 356 356 355 354 354 354 357 359 361 359 355 352 351 350 349 348 347 346 344 346 350 354 357 362 366 368 370 371 375 377 381 387 391 389 383 376 367 360 351 338 323 317 315 325 340 352 360 356 338 315 297 282 268 246 236 248 257 259 251 254 262 259 253 246 247 244 236 228 220 214 205 200 198 196 197 206 211 214 218 222 217 211 220 233 246 256 257 243 222 205 194 180 164 149 142 142 146 165 181 193 206 216 227 237 249 264 277 291 299 306 311 318 330 348 367 380 386 392 397 403 408 414 416 417 419 420 422 424 426 427 428 430 432 432 431 430 429 428 428 424 412 405 399 394 392 398 406 409 409 407 406 407 405 406 415 417 418 418 419 421 422 423 425 426 427 428 428 429 430 432 435 437 440 441 441 441 440 441 444 446 449 451 453 455 456 458 459 460 460 459 460 460 456 452 454 457 457 457 456 454 452 451 449 456 463 457 452 452 450 452 455 456 457 459 459 457 451 449 448 448 448 449 449 451 452 453 453 452 451 451 452 453 454 454 453 450 449 450 451 453 456 460 464 468 471 475 477 479 477 477 477 477 477 477 478 478 478 477 475 474 474 475 474 477 481 484 483 481 479 476 474 473 472 471 471 471 471 472 473 474 476 483 487 489 487 478 470 468 473 478 475 468 461 452 447 442 438 437 438 437 436 436 436 438 442 445 449 455 463 477 489 491 484 477 472 468 465 461 454 448 450 457 467 480 491 492 489 481 474 474 484 491 491 483 472 465 458 453 453 454 454 454 443 434 436 439 446 453 458 462 472 481 487 487 488 491 490 491 496 500 509 519 527 533 542 550 558 562 563 558 551 549 554 557 558 557 558 564 576 588 600 599 591 583 576 570 566 560 550 542 538 540 538 531 525 521 517 514 508 501 498 498 495 489 481 475 479 489 486 475 466 471 474 477 480 484 488 488 492 498 502 509 514 521 527 537 548 557 563 562 559 557 557 558 558 556 553 547 538 532 527 524 521 518 515 514 521 525 526 524 520 515 511 508 509 511 511 510 508 507 504 496 485 471 457 467 482 492 501 507 514 520 526 533 539 539 535 528 523 523 525 527 527 526 523 522 524 530 539 548 556 566 575 573 570 567 564 561 559 558 558 557 556 554 552 543 528 516 504 497 492 489 491 492 495 499 508 517 521 525 525 522 521 519 517 517 518 519 519 519 522 529 530
222 223 224 225 226 226 225 225 226 228 229 230 232 234 234 232 230 229 228 229 232 233 234 232 232 234 236 239 241 243 245 247 251 256 256 257 257 256 256 255 257 259 260 262 264 265 266 268 270 271 272 272 272 277 280 281 283 283 283 283 284 285 283 282 285 287 289 289 287 284 280 277 274 276 276 273 271 269 267 268 269 269 271 270 269 268 256 255 256 258 260 261 263 265 267 269 270 271 274 276 279 282 284 285 283 279 276 279 285 291 299 306 314 319 327 334 341 345 350 353 354 353 354 355 353 350 347 343 341 339 336 338 344 348 353 355 355 354 355 354 353 353 352 355 356 357 355 353 351 350 348 347 346 345 343 343 347 352 355 358 362 366 367 368 369 374 377 382 386 389 387 381 374 365 356 347 333 318 311 311 325 341 353 360 355 339 316 297 281 263 245 232 236 244 249 242 247 258 257 255 256 255 249 241 234 225 218 207 198 190 187 191 198 201 203 211 217 208 204 215 227 238 248 248 236 215 194 180 165 151 143 142 143 157 177 195 206 217 227 238 252 261 269 280 293 298 305 312 323 338 357 374 381 383 385 392 400 409 416 419 421 423 424 425 427 428 428 430 431 432 432 432 431 430 429 428 423 415 413 409 402 395 393 399 402 399 402 402 402 407 411 416 418 419 420 420 422 423 424 425 426 427 428 429 429 430 433 435 438 440 442 442 440 440 441 443 446 449 451 453 454 456 457 458 459 458 458 458 457 455 455 459 460 460 459 459 457 455 451 451 460 462 456 455 453 449 454 459 460 460 460 459 455 449 448 449 448 448 449 449 450 451 452 451 449 449 450 451 452 453 454 454 448 449 452 454 456 458 461 464 466 469 471 475 479 481 481 481 481 479 478 478 478 477 475 474 474 474 474 475 477 483 487 485 482 479 476 473 471 470 469 468 467 468 470 473 475 482 490 491 490 488 478 467 462 463 466 468 465 461 452 448 444 439 437 436 435 435 435 436 439 442 446 448 453 461 474 486 484 473 466 461 458 457 454 449 443 447 458 468 478 489 491 482 471 466 471 481 489 488 481 472 464 458 454 453 452 452 452 444 435 434 437 441 444 447 456 470 478 480 479 481 483 485 489 495 500 509 518 527 534 543 552 555 557 558 555 550 546 548 550 548 553 559 567 576 585 599 602 599 592 583 576 569 561 549 544 543 548 545 538 531 526 520 516 509 501 494 491 491 486 479 474 478 484 483 472 465 469 474 477 480 484 488 490 494 499 503 510 514 520 527 538 551 559 564 565 565 564 565 566 564 559 553 547 542 540 534 528 523 518 514 511 514 518 519 518 514 510 505 500 499 502 506 507 509 513 512 503 487 471 456 464 476 486 494 500 506 511 518 528 537 539 535 528 522 518 521 525 527 527 526 524 523 526 532 540 550 559 568 570 569 566 564 561 561 562 562 562 560 555 550 541 527 516 505 497 492 489 490 493 496 500 510 516 518 519 517 512 510 511 509 507 510 513 513 513 517 522 524
222 223 224 225 225 225 225 225 226 227 228 229 231 232 231 230 229 228 228 229 230 232 232 234 235 238 240 242 242 243 243 244 247 252 256 257 257 256 256 256 257 259 261 264 266 266 267 268 269 270 269 269 270 276 280 282 282 282 282 283 284 284 282 280 282 284 284 284 284 282 279 273 269 271 274 271 269 268 266 268 269 270 270 270 266 260 255 254 256 257 259 260 263 264 266 267 268 269 272 274 276 278 279 278 275 274 278 281 285 292 299 307 315 321 326 331 337 343 347 350 350 350 351 352 351 348 345 342 338 335 336 341 344 350 354 355 354 353 354 354 353 351 351 353 355 354 353 352 350 348 346 345 344 343 342 344 348 352 355 358 361 364 365 365 367 373 378 381 385 388 385 380 373 365 356 346 332 317 305 309 328 343 355 360 355 338 316 298 279 260 247 232 226 232 236 232 244 259 260 261 266 261 249 239 231 223 217 207 197 185 181 185 190 192 198 207 210 202 195 206 216 226 234 236 226 207 187 167 152 144 142 141 150 169 186 201 211 223 236 248 262 273 281 285 293 300 306 315 328 345 360 371 375 376 381 390 400 409 416 421 425 427 428 428 428 429 429 430 431 432 432 431 430 429 428 428 425 421 420 417 410 401 394 393 394 400 406 411 413 415 419 418 419 420 421 421 422 423 424 425 426 426 427 428 429 431 433 435 437 439 442 442 440 440 440 442 446 449 451 453 454 455 456 457 457 457 457 457 457 458 460 462 462 462 462 461 459 456 453 454 459 461 458 459 455 448 456 462 462 460 460 457 452 448 449 449 448 448 448 448 449 448 450 448 446 447 448 451 452 453 453 451 447 448 453 455 456 458 461 462 465 466 469 476 485 486 485 485 483 481 479 478 477 475 474 473 473 474 475 478 481 486 488 486 481 477 475 472 469 467 466 466 464 465 470 474 478 487 490 489 489 485 478 468 461 456 455 459 458 456 453 451 450 445 438 435 434 433 434 435 438 444 449 451 451 461 472 480 476 463 456 452 450 450 448 445 439 445 456 465 474 482 486 481 466 460 466 476 481 480 476 468 462 456 451 449 445 445 446 443 435 433 436 437 438 440 450 459 465 470 473 475 477 486 495 503 512 515 520 527 534 541 548 551 552 552 550 545 539 542 545 546 551 557 566 576 584 596 605 605 599 588 578 569 560 549 546 547 551 549 542 535 528 521 514 507 500 491 487 485 480 476 474 474 477 479 469 463 468 473 476 479 483 487 489 494 500 505 512 517 523 530 540 551 560 564 568 570 571 572 573 568 562 556 553 552 546 539 530 524 519 514 511 511 512 512 510 508 503 494 492 490 492 496 501 505 512 516 509 486 468 456 459 470 478 485 490 494 501 513 526 535 539 536 527 520 513 515 520 523 528 532 529 526 528 532 536 546 554 561 565 566 565 564 563 563 563 563 562 558 552 546 536 524 513 503 497 493 489 490 492 495 499 505 510 511 511 507 502 499 499 500 501 500 505 509 511 512 519 524
221 222 223 224 224 224 225 225 226 227 228 228 229 229 230 229 228 228 228 229 231 232 234 237 239 241 243 244 244 245 244 243 244 248 254 256 257 257 257 256 257 258 260 265 268 269 268 268 268 269 268 268 270 273 278 280 280 281 281 282 283 282 281 281 280 281 281 281 280 280 274 270 268 269 271 270 268 266 265 268 269 269 269 270 261 255 254 254 255 256 258 260 263 265 264 264 265 268 270 272 272 273 273 271 271 276 282 287 289 291 295 304 313 318 324 329 335 342 345 346 346 345 348 350 349 346 343 340 335 335 340 344 346 351 354 355 354 353 353 353 353 351 350 351 352 352 351 349 348 346 344 343 343 342 342 345 348 352 355 357 359 362 363 364 366 373 379 382 385 386 383 379 373 365 357 346 333 317 302 311 330 344 355 360 355 337 313 297 279 264 253 236 222 221 222 227 243 257 261 264 267 259 246 236 226 216 210 203 194 184 180 180 181 188 197 204 204 195 184 191 202 212 219 222 214 196 177 159 146 142 142 143 159 179 195 207 220 231 241 254 266 283 295 305 310 313 317 320 328 341 353 362 365 373 381 391 399 408 416 423 428 429 429 430 430 430 430 430 430 431 430 430 429 428 427 427 427 426 425 421 415 405 398 396 395 399 409 416 418 418 418 419 420 421 421 421 422 423 424 425 426 427 427 428 430 432 434 436 438 439 441 443 444 443 444 446 449 448 450 452 454 455 455 456 456 456 456 456 457 460 462 463 463 463 463 462 460 458 454 454 457 461 460 460 455 450 458 462 461 459 459 456 451 449 450 450 449 448 448 447 447 446 446 446 446 446 448 451 452 452 450 446 445 448 451 453 456 460 462 461 464 465 470 478 482 485 485 486 484 481 478 476 475 474 473 473 473 474 476 480 483 487 488 488 480 474 471 468 466 464 463 463 462 465 474 477 479 482 483 483 482 482 477 471 464 457 450 451 451 450 450 451 452 448 440 436 432 431 432 435 441 450 455 455 457 461 470 479 470 458 451 447 446 446 444 442 439 440 451 460 467 475 481 478 467 454 459 466 470 470 467 463 460 455 451 447 441 439 440 440 435 433 435 438 439 442 450 459 467 472 475 476 478 487 499 512 517 520 523 528 533 538 543 546 547 546 544 538 535 537 541 545 547 557 565 574 583 594 608 611 603 589 578 569 560 553 548 544 546 548 541 534 526 518 511 502 496 490 486 482 478 476 475 473 473 474 467 463 467 471 475 479 482 485 487 493 499 507 513 517 523 531 540 548 555 562 569 574 577 578 576 571 565 561 557 553 548 540 531 524 519 514 511 509 506 503 502 499 494 493 490 487 484 486 490 496 503 513 512 489 474 460 454 458 465 470 476 485 497 511 524 531 534 532 525 516 508 506 509 517 526 536 538 535 534 535 537 542 547 553 560 562 562 563 563 563 563 562 558 550 543 537 530 520 513 508 502 497 490 488 490 493 497 500 502 502 501 499 498 498 498 500 504 507 512 517 520 524 526 532
221 222 222 223 223 224 224 225 226 227 227 227 228 228 229 229 229 229 229 231 232 235 240 241 242 244 245 246 246 246 246 245 244 245 251 255 256 257 257 256 256 258 260 265 268 269 269 269 268 268 267 268 269 272 275 278 279 279 281 281 282 282 281 281 281 280 280 279 278 276 271 269 268 268 270 270 268 266 265 267 266 266 266 267 258 255 253 253 255 256 257 260 263 268 267 263 262 266 269 270 270 268 268 269 275 280 287 293 295 294 292 299 307 317 326 331 337 340 343 343 342 341 345 347 347 344 341 337 333 338 343 345 347 350 353 355 354 353 352 352 350 348 347 348 349 349 349 347 345 344 343 341 341 340 341 344 348 351 354 356 359 361 362 364 366 373 379 382 385 385 383 378 371 364 356 345 330 314 301 312 330 343 353 359 353 333 312 297 285 273 260 243 224 217 214 218 234 246 253 257 259 253 243 232 222 210 206 199 191 183 177 176 179 186 194 198 198 189 174 176 187 196 204 209 202 184 164 151 143 142 142 152 174 194 210 224 236 244 251 261 274 291 308 321 331 334 337 338 339 341 346 351 362 373 381 390 398 407 415 422 427 429 429 428 428 428 428 429 429 429 429 428 427 426 425 426 426 426 426 423 417 405 399 402 401 398 407 414 416 417 418 420 421 422 422 422 422 423 425 426 427 428 429 429 431 433 434 436 437 439 441 443 445 447 449 451 450 449 449 451 453 454 455 456 455 454 454 454 458 461 463 464 464 464 463 462 461 460 456 455 456 460 461 460 457 453 457 461 461 459 459 458 454 450 449 449 449 448 448 447 446 445 445 445 445 445 449 451 452 450 443 443 448 452 454 456 458 462 465 466 467 468 472 478 480 481 484 485 483 479 474 473 474 473 472 472 473 475 477 480 483 486 487 486 477 470 466 465 463 461 460 460 462 470 476 475 474 471 472 474 477 482 481 479 472 462 452 449 446 444 446 446 447 446 442 437 430 428 431 435 445 459 461 459 458 461 467 474 465 455 448 441 441 442 441 439 438 436 443 451 462 472 478 477 465 450 448 455 459 460 460 458 457 455 454 453 450 443 438 437 434 432 436 442 449 453 458 470 479 484 487 488 484 488 502 515 522 523 525 526 529 534 537 539 540 540 537 534 534 537 541 546 552 563 574 584 592 599 610 613 608 593 582 572 564 555 546 538 539 541 535 530 522 514 507 502 496 490 487 482 478 477 476 472 469 469 465 463 466 472 476 479 482 485 489 496 502 509 514 517 521 528 537 543 549 559 570 578 583 582 576 571 566 562 557 553 549 540 531 524 519 513 510 507 504 499 497 496 500 502 500 495 488 483 482 486 493 505 508 493 479 467 455 451 454 460 472 486 498 510 521 527 528 526 519 509 501 498 503 514 522 531 536 538 538 540 544 548 548 549 554 558 561 563 563 563 562 560 552 548 546 541 534 529 524 518 512 503 494 488 489 492 494 496 497 498 498 498 499 500 506 511 515 522 526 528 528 526 528 533
220 221 222 223 223 224 224 225 226 227 227 227 228 229 229 229 230 230 231 232 232 238 244 244 242 244 246 247 247 248 247 247 247 248 250 253 255 257 257 257 256 256 259 264 268 269 269 269 267 266 267 268 268 270 273 277 278 280 281 281 282 282 282 282 282 281 280 278 276 274 272 270 267 266 267 269 269 266 264 261 261 261 261 259 255 253 252 254 255 256 257 259 263 266 265 261 259 261 264 267 265 267 269 273 279 284 291 297 302 302 298 303 311 321 329 335 341 341 341 340 340 339 342 345 345 344 340 335 333 340 343 345 347 350 352 354 354 353 351 350 348 346 344 344 345 346 346 345 343 342 342 341 340 339 341 343 348 351 354 356 358 361 362 364 367 373 379 382 384 385 382 377 370 363 353 340 325 310 300 310 326 339 349 355 351 334 313 299 287 277 263 248 234 223 213 208 222 232 239 245 252 250 240 229 221 216 208 202 195 185 175 171 175 181 187 192 189 177 165 165 174 177 185 191 188 171 156 146 142 142 148 167 188 209 228 241 250 259 266 269 280 297 315 332 343 351 355 357 357 354 353 353 363 371 378 385 394 404 412 419 425 427 427 427 426 426 426 426 426 426 426 425 423 423 423 424 424 424 423 421 417 408 400 402 403 399 404 412 416 417 419 421 423 424 424 423 422 424 425 426 427 429 430 431 433 433 435 436 437 438 440 442 445 449 450 450 451 450 449 451 452 454 455 456 454 453 452 454 457 461 464 464 464 464 463 463 462 462 459 457 457 459 461 461 458 456 457 461 461 460 460 458 455 451 448 448 448 448 448 447 445 444 444 445 444 445 449 450 451 447 441 445 450 455 457 459 460 463 467 470 471 472 476 478 477 476 480 482 480 475 471 472 472 471 471 472 472 475 477 479 481 483 482 480 476 469 462 461 460 457 456 459 465 475 474 464 463 462 465 472 481 487 486 483 476 466 455 448 442 440 440 440 440 442 440 436 429 424 429 435 447 463 464 460 456 458 464 468 461 452 445 439 439 440 439 437 436 435 438 449 459 468 474 470 462 446 439 446 450 453 453 453 453 452 453 454 455 451 441 437 433 431 436 444 453 461 468 478 490 495 497 497 494 493 505 521 526 526 526 525 524 528 533 535 535 534 532 531 533 537 542 549 557 569 580 592 600 605 610 613 612 599 588 576 565 555 544 536 533 533 529 523 515 508 504 500 494 490 488 480 476 474 473 470 464 465 464 462 465 471 476 479 482 486 491 499 503 507 512 514 518 523 530 535 546 560 570 581 588 584 576 569 562 557 554 552 549 541 534 526 519 513 510 507 503 499 499 504 510 513 510 504 497 487 479 480 484 494 498 491 480 471 457 451 451 458 474 488 502 510 517 520 521 519 512 504 495 492 498 508 517 523 527 531 537 544 550 553 554 553 555 558 560 562 563 563 560 559 558 557 557 554 548 541 535 527 519 510 498 488 488 490 493 494 495 497 498 499 505 513 515 517 520 525 527 526 525 523 524 526
219 220 222 224 224 224 225 226 227 228 228 228 229 229 229 229 230 231 233 234 235 239 244 245 244 244 247 248 249 249 250 250 250 251 251 254 255 256 257 258 257 257 258 263 265 268 268 268 266 266 268 269 269 272 274 276 278 280 281 281 282 282 283 283 283 281 280 277 274 272 271 270 267 266 265 266 266 265 261 258 256 257 258 256 254 252 252 253 255 256 258 258 259 260 258 256 259 261 263 263 267 268 272 276 280 286 293 300 306 308 307 307 316 326 332 338 343 341 339 337 335 336 340 343 344 343 340 333 333 341 344 344 344 348 352 354 354 353 350 348 346 344 342 342 343 344 344 344 342 341 341 340 338 338 341 344 349 352 354 356 358 361 362 364 367 372 378 381 384 384 381 377 370 362 350 333 319 305 296 306 318 330 342 349 349 338 319 303 291 277 262 249 237 226 218 201 203 216 226 237 253 254 243 234 222 216 206 199 194 185 174 164 166 172 177 178 173 165 157 154 157 160 165 170 169 160 149 142 142 145 162 180 195 220 239 254 265 274 281 288 296 306 323 340 354 365 372 374 375 374 372 369 369 376 379 383 391 400 408 415 420 424 424 424 424 423 423 422 421 421 420 420 419 419 421 423 423 422 420 419 417 411 402 402 407 402 400 409 415 417 420 423 425 427 427 425 423 424 425 426 428 429 431 433 435 434 434 435 437 438 439 441 445 449 451 451 450 451 450 451 452 453 454 454 454 452 452 454 457 460 463 464 464 464 464 463 463 462 462 459 457 458 460 460 459 457 458 460 461 461 460 457 454 451 449 448 448 449 449 448 445 443 442 443 443 444 448 450 447 443 442 447 452 455 458 460 462 464 467 471 473 475 477 479 476 472 476 478 476 472 470 470 470 470 472 473 473 474 476 477 478 479 477 476 475 470 463 460 457 453 451 458 468 474 469 460 455 457 467 478 489 494 492 487 478 468 456 449 443 438 434 429 432 437 436 432 427 415 427 434 445 461 464 459 453 453 461 466 459 449 444 440 438 438 437 436 435 434 436 444 453 460 463 461 454 443 432 438 444 446 448 449 449 448 451 454 456 455 444 436 433 431 435 441 448 459 473 485 497 502 503 502 501 501 510 524 528 527 525 521 520 524 528 530 531 530 526 527 532 536 542 550 559 570 581 594 601 604 609 613 612 602 589 577 565 554 543 534 527 524 520 513 506 501 497 490 488 487 485 481 479 478 477 475 468 464 462 461 465 469 474 479 484 487 490 498 501 503 507 511 516 520 524 532 548 561 570 582 588 581 574 566 558 549 548 547 545 541 535 526 519 514 510 507 503 501 505 513 521 526 522 514 506 497 487 476 477 485 489 486 479 470 459 450 450 459 475 489 501 506 510 512 511 509 504 498 490 486 491 498 507 513 517 524 533 545 553 559 561 561 559 560 560 561 561 563 563 563 565 566 566 565 560 551 543 535 525 515 505 492 487 489 491 493 494 496 497 500 511 515 515 515 516 517 517 517 515 516 517 521
221 222 224 225 225 225 226 227 228 229 230 230 229 229 229 230 230 231 235 239 242 242 244 245 246 246 248 249 250 251 252 253 253 253 253 254 254 255 256 258 258 258 258 259 262 266 267 267 266 267 268 269 271 272 274 276 277 279 280 281 282 282 283 283 282 281 280 278 272 269 269 269 267 263 262 262 263 262 260 258 256 256 255 254 252 251 252 253 255 257 258 257 257 256 255 257 261 265 268 269 271 271 274 277 279 284 292 300 306 309 311 315 321 329 335 340 344 342 338 333 330 333 337 341 343 343 339 332 332 339 342 341 343 348 352 355 354 352 350 348 345 343 342 341 343 343 342 343 342 340 339 338 337 339 343 346 350 353 355 357 358 361 362 364 366 372 377 381 383 384 382 378 371 363 351 336 316 300 290 296 309 322 335 344 345 337 321 305 286 270 256 244 232 219 210 197 193 207 224 239 257 258 247 232 216 207 198 191 187 181 171 161 158 162 163 163 158 153 149 144 144 146 148 150 150 147 143 142 143 154 175 193 211 231 248 264 279 288 297 307 313 320 332 352 363 377 386 392 392 390 387 383 381 385 389 389 390 397 406 413 418 421 422 422 421 420 419 418 417 416 415 415 415 417 422 423 422 421 420 419 417 412 404 405 412 408 399 405 413 417 420 425 428 432 431 427 424 423 424 426 428 429 434 437 437 434 434 435 436 437 438 441 444 448 451 451 451 451 451 451 452 453 453 453 453 452 452 453 456 459 462 462 463 464 464 464 464 463 462 460 459 458 457 458 459 458 458 462 462 461 460 457 454 451 449 448 448 449 449 447 443 441 440 440 443 444 447 447 443 438 443 449 452 455 458 460 461 464 467 471 474 476 476 475 471 469 468 474 473 471 468 467 468 470 472 474 474 475 475 476 476 476 475 473 471 469 465 461 456 451 449 454 463 466 463 456 449 455 468 483 495 502 497 488 478 468 456 449 444 441 435 428 427 429 429 428 422 414 421 433 443 456 462 457 451 450 457 463 455 448 444 440 438 437 437 436 434 432 431 436 442 447 449 448 445 437 425 430 437 441 443 445 445 442 445 451 454 455 444 436 432 431 434 437 446 455 470 488 500 502 502 502 499 501 510 520 523 521 517 514 517 522 526 528 529 527 524 526 532 536 542 548 559 570 579 588 596 600 606 612 610 599 586 575 562 551 542 531 523 521 514 511 504 500 496 491 488 487 486 487 488 490 489 484 476 467 462 461 464 469 474 480 486 490 492 496 498 498 503 508 514 518 523 534 550 561 571 580 581 574 568 561 552 542 537 539 539 536 531 524 517 513 510 507 505 506 512 519 526 528 527 519 512 502 493 481 475 477 481 480 475 467 458 450 450 458 472 486 496 500 500 499 499 497 495 492 485 483 488 500 507 511 517 526 535 548 557 563 567 567 565 561 560 560 560 562 567 571 574 575 574 570 566 558 548 540 530 520 511 499 487 488 490 492 494 495 497 498 501 504 506 507 507 505 507 510 511 512 515 520
222 224 226 228 229 226 226 228 230 231 232 232 231 230 230 231 233 234 238 244 245 244 244 244 245 247 248 250 252 253 253 254 256 255 255 256 255 255 256 257 258 259 260 260 262 264 265 266 265 266 268 268 270 271 273 275 276 277 279 280 281 281 282 282 283 282 281 279 272 269 268 267 265 260 258 258 260 260 260 259 256 256 254 253 251 250 251 253 254 256 256 255 254 255 256 259 263 268 271 272 274 275 277 278 279 282 291 298 306 308 312 316 322 329 335 341 344 344 340 334 329 330 334 338 341 341 337 331 329 336 340 340 344 348 353 355 355 353 350 347 344 342 341 341 343 342 341 342 341 340 338 337 336 340 343 347 351 354 356 357 359 361 362 364 366 371 377 381 383 384 383 379 372 365 354 338 318 302 288 290 305 317 328 334 333 325 313 296 277 261 245 235 223 210 197 187 189 205 225 241 255 255 244 233 218 204 191 181 178 175 166 158 153 152 151 149 145 144 142 142 142 142 142 143 143 142 142 141 148 167 186 205 222 238 255 273 288 301 313 322 330 338 347 361 374 387 394 401 404 402 399 395 391 391 394 393 391 397 405 412 416 419 420 420 419 417 416 415 414 414 414 415 416 419 421 423 423 422 421 420 417 413 409 410 416 413 403 403 411 417 420 425 430 437 434 426 424 423 424 426 427 429 436 438 439 436 434 435 436 437 438 441 444 447 450 451 451 450 450 451 452 452 453 453 452 451 451 452 455 459 461 462 463 464 465 465 464 463 463 461 460 458 458 457 458 458 458 461 463 462 459 456 453 451 449 447 447 449 447 444 441 440 438 439 442 443 443 442 441 438 445 450 452 455 460 459 459 462 466 469 470 472 472 471 468 464 463 468 470 468 463 462 468 472 472 472 473 476 476 475 474 473 472 470 468 466 465 462 457 452 449 450 455 458 456 451 445 453 469 485 496 506 499 488 477 467 455 447 442 442 440 433 428 426 425 423 419 414 421 431 439 449 454 453 448 447 453 457 451 446 442 439 438 437 437 436 434 431 428 428 431 435 437 437 436 430 420 421 429 435 439 442 442 439 438 444 450 453 446 436 432 430 433 438 447 462 475 486 495 497 497 496 493 494 504 512 513 509 508 510 515 520 524 526 527 526 522 526 535 542 549 552 559 567 573 578 586 593 599 605 603 590 578 569 559 548 537 529 527 528 527 523 516 509 504 500 496 494 495 497 499 499 497 491 484 475 466 460 464 468 473 479 487 490 492 494 494 496 500 506 511 517 525 537 550 562 576 578 574 565 559 553 546 536 535 535 534 529 524 520 516 513 511 509 510 512 515 520 523 523 520 515 510 504 494 484 476 470 473 473 469 462 454 450 449 454 467 479 488 490 488 486 485 484 483 481 478 483 491 503 512 519 525 532 542 552 561 567 572 574 573 567 562 561 562 566 572 578 583 585 585 579 571 564 553 542 533 525 515 506 488 487 489 491 493 496 497 498 498 499 499 498 498 501 508 511 514 516 519 522
224 224 227 231 233 230 229 231 233 235 236 236 235 234 233 233 235 237 239 242 244 244 243 243 244 246 248 251 254 255 255 256 257 258 257 258 257 256 257 258 260 260 261 261 262 263 264 264 265 266 267 268 269 271 272 274 275 276 278 279 280 280 281 281 282 282 282 279 275 272 269 265 263 260 257 257 258 259 259 258 257 256 254 252 250 250 251 251 252 253 252 254 256 257 256 258 263 268 272 275 277 279 280 281 282 284 293 298 303 306 309 315 321 328 334 340 344 344 340 334 329 329 332 335 337 338 335 329 329 335 340 341 344 348 352 355 355 352 349 346 345 343 341 340 341 340 340 341 340 338 337 335 336 339 343 347 351 354 356 357 359 361 362 364 366 371 376 380 382 384 383 379 372 364 351 336 319 303 287 282 297 310 318 321 317 308 295 283 269 254 237 223 213 200 188 181 189 203 221 235 244 243 237 230 219 204 192 181 171 166 160 154 148 144 142 143 142 142 142 142 142 142 142 142 142 142 142 146 160 171 185 205 223 241 260 280 296 312 326 338 347 353 365 373 383 391 397 403 406 408 407 404 399 396 400 401 398 400 406 412 416 418 419 418 417 415 414 413 413 414 416 418 420 421 422 424 424 424 424 423 421 418 413 413 416 414 407 402 407 415 419 423 428 435 428 424 422 423 424 425 426 428 434 439 439 439 435 434 435 437 438 440 443 446 449 451 451 449 450 451 452 452 453 452 452 451 451 452 455 461 464 464 464 465 465 465 464 464 463 462 461 459 458 457 457 457 457 460 463 461 458 455 452 451 449 447 446 446 444 442 440 439 437 438 441 441 441 440 440 441 446 449 451 455 458 457 457 461 464 464 466 469 468 468 467 464 459 460 465 464 460 461 470 473 472 471 472 476 477 474 471 470 467 466 465 464 463 460 456 453 450 448 449 451 450 445 440 452 467 482 493 500 497 486 476 465 453 445 438 438 438 433 428 425 422 419 416 414 419 428 435 442 446 445 441 444 452 453 450 445 441 439 438 438 438 438 437 435 432 427 422 423 424 424 425 422 416 415 422 429 438 441 441 439 437 438 443 447 445 439 433 429 432 437 445 459 470 479 486 490 491 489 484 486 496 502 504 500 502 508 514 518 521 525 526 523 520 525 534 544 550 553 558 563 566 570 576 581 586 592 590 577 570 564 555 545 536 535 537 538 539 536 530 520 513 508 506 505 505 505 506 504 501 495 489 481 470 461 463 467 471 476 484 489 491 491 490 492 498 502 508 516 526 538 551 564 576 577 575 569 562 555 546 538 535 536 534 528 524 521 518 514 512 511 514 519 522 520 517 514 510 507 504 499 490 482 477 466 463 464 461 456 452 450 449 451 460 471 478 480 477 473 471 471 472 473 475 482 492 501 511 522 529 537 546 555 563 571 575 576 576 572 566 564 566 570 575 582 589 595 597 591 580 568 554 540 530 524 516 506 492 486 489 490 493 497 499 499 499 499 500 501 506 510 514 520 523 521 525 526
226 226 227 232 234 233 232 234 236 239 242 242 242 240 239 239 239 240 241 243 244 244 245 246 244 245 249 253 255 257 257 257 259 260 260 259 259 258 259 260 262 263 262 262 263 263 262 262 263 264 265 267 269 270 272 272 274 275 277 278 279 279 280 280 281 281 281 279 278 274 270 267 263 260 257 256 257 258 257 257 256 255 253 251 250 249 250 250 251 251 253 255 259 262 258 258 265 269 273 276 280 281 282 283 285 289 292 296 298 300 304 312 319 325 330 337 343 343 339 333 329 329 330 333 334 335 333 329 330 337 342 340 342 346 351 353 353 350 346 344 345 344 342 341 340 339 339 339 338 336 335 334 336 340 343 347 351 354 356 358 359 360 361 363 365 369 374 379 381 384 382 377 369 357 344 331 316 301 286 275 285 300 305 305 302 295 280 265 258 249 230 216 206 194 181 176 187 200 213 225 230 229 220 218 211 201 193 183 168 157 154 149 144 142 142 142 142 142 142 142 142 142 142 142 142 142 145 160 172 180 194 212 227 244 263 283 301 319 332 342 355 363 372 380 387 393 398 402 405 408 409 406 402 401 403 404 402 402 406 413 416 417 417 416 415 414 412 412 413 415 417 420 423 425 426 426 426 426 426 427 426 423 415 414 416 415 410 406 405 412 417 420 423 424 422 419 421 423 424 424 425 427 431 436 439 439 434 433 435 437 438 440 442 446 448 449 449 449 450 451 452 452 453 452 451 451 451 452 456 462 464 465 464 465 465 465 464 464 464 462 461 460 459 458 457 457 456 459 461 459 457 454 452 450 448 447 445 443 442 440 439 438 436 437 440 441 440 439 439 441 444 447 450 454 454 453 455 459 459 459 461 464 465 468 466 459 455 457 460 461 460 463 472 474 472 470 469 473 474 471 469 468 465 463 461 460 459 457 454 452 450 444 442 444 444 440 437 447 464 476 487 492 490 482 474 461 450 443 437 433 429 428 427 423 419 415 412 413 417 424 429 434 438 438 438 445 452 452 449 445 441 438 438 440 442 443 443 441 438 431 420 413 414 415 416 415 413 414 425 436 443 444 442 439 436 434 436 440 442 440 433 429 431 435 440 451 461 469 476 481 482 480 475 482 488 492 494 495 499 505 511 516 520 524 525 522 518 523 531 540 548 552 555 558 558 560 566 571 574 578 578 569 561 557 551 545 541 541 545 548 549 548 544 534 523 518 516 515 514 512 510 507 502 496 490 483 473 461 462 466 469 473 482 489 490 489 487 489 495 499 506 514 525 537 549 558 564 570 574 572 566 560 555 550 546 542 539 534 527 523 519 515 512 514 521 526 526 521 511 506 502 500 495 490 483 477 474 467 463 462 458 454 453 450 448 449 454 463 470 470 465 463 461 461 468 473 476 480 487 495 507 518 527 537 545 555 564 570 575 576 577 573 567 563 565 571 575 580 588 597 603 600 588 571 553 534 521 515 511 503 490 485 488 488 492 499 501 501 502 505 509 514 515 515 519 523 520 518 523 526
230 229 229 232 235 237 235 240 242 245 247 247 248 247 245 245 244 242 244 245 246 247 250 254 250 248 251 254 257 259 260 260 261 262 262 261 261 260 261 261 263 265 264 264 263 262 260 259 260 263 265 266 268 270 271 270 272 273 275 276 277 278 279 279 280 280 280 280 278 274 270 266 262 259 257 256 256 256 256 255 255 254 252 250 249 248 249 250 250 252 254 257 264 268 266 264 266 270 274 278 281 283 284 285 287 289 291 293 293 297 306 311 316 321 327 335 340 340 336 332 328 327 329 331 333 333 332 328 329 335 339 339 341 344 347 349 350 347 344 342 343 344 343 342 340 339 337 336 335 334 334 334 337 341 344 348 352 355 356 358 358 358 359 362 364 367 373 377 380 382 380 373 363 346 333 321 308 296 284 270 274 289 291 288 288 281 267 246 243 237 227 217 208 198 188 174 177 190 199 209 215 216 205 200 197 193 189 180 163 153 149 143 142 142 142 142 142 142 142 142 142 142 142 142 143 146 158 176 189 193 201 220 236 254 269 287 301 316 332 346 358 369 377 383 389 394 398 402 404 406 407 406 404 404 405 406 404 403 407 413 415 415 414 414 413 413 412 412 414 415 418 421 425 427 428 428 428 428 428 428 429 427 418 414 418 416 413 411 407 406 412 417 418 419 417 416 420 424 426 425 425 426 427 431 435 435 432 434 435 437 439 441 443 445 447 449 449 449 450 451 452 452 453 452 451 451 451 452 456 460 463 465 465 466 465 464 464 464 463 463 461 461 460 458 457 456 456 458 458 457 455 453 452 449 448 445 443 441 440 439 438 437 436 436 438 439 439 438 439 440 442 445 448 451 451 450 453 455 453 454 457 458 463 469 465 455 451 454 457 459 461 466 470 471 469 468 466 468 470 469 467 465 462 460 456 455 455 455 453 450 447 441 437 439 439 437 435 443 456 468 478 483 483 478 468 456 447 440 435 430 426 425 423 420 416 413 409 413 417 421 425 427 431 436 438 445 452 452 449 445 441 438 441 444 448 450 450 447 443 437 431 421 416 414 413 411 406 412 426 437 446 450 445 438 434 430 430 435 437 437 432 428 429 433 437 443 450 457 461 465 467 466 470 477 483 485 487 493 499 504 511 515 520 524 526 525 517 520 527 535 542 548 551 552 548 549 556 562 564 565 566 561 551 546 542 541 542 545 550 552 552 552 549 542 534 529 527 526 522 518 515 510 502 496 488 479 468 460 460 465 468 472 478 488 489 487 487 490 496 500 506 511 523 533 543 550 554 560 567 569 566 563 561 557 553 547 542 537 530 524 520 516 514 520 527 531 530 524 516 508 501 496 488 486 484 479 478 475 470 466 461 455 453 451 447 448 450 456 460 459 456 457 461 468 478 483 485 485 485 493 504 512 523 531 541 551 561 566 569 572 573 569 561 558 562 568 568 573 583 592 600 601 592 572 554 538 520 506 500 495 487 485 485 486 490 501 500 501 503 509 513 514 514 512 512 512 511 512 519 523
233 233 232 232 237 241 242 244 247 249 251 255 258 258 256 256 252 247 246 245 250 252 254 257 254 251 252 255 258 260 263 264 264 264 264 264 263 262 263 263 265 267 267 266 264 261 258 257 259 261 264 266 268 269 270 269 270 272 274 275 277 277 278 278 279 279 278 277 276 273 270 266 261 256 257 256 255 254 254 254 253 252 251 249 248 248 249 249 250 252 255 260 267 270 269 268 268 269 276 281 282 283 284 285 287 288 289 291 292 297 305 309 312 317 326 333 337 337 334 330 325 323 326 331 333 332 331 325 330 333 335 337 340 342 344 345 346 345 342 340 341 342 343 342 340 338 336 334 333 332 332 334 338 341 345 349 353 355 357 357 356 354 356 360 364 367 372 377 380 382 379 370 359 342 324 311 300 290 275 262 263 277 275 270 271 264 252 232 225 226 226 228 221 208 193 176 167 175 182 190 202 204 196 184 183 180 178 168 155 146 142 142 142 142 142 142 142 142 142 142 142 142 143 144 148 160 178 195 208 215 219 228 243 264 280 293 303 322 338 352 364 375 381 386 391 395 399 402 405 406 407 407 406 406 406 406 406 407 408 411 412 412 412 412 412 412 413 414 414 416 419 422 425 427 428 428 429 429 428 429 430 428 418 415 418 418 417 416 414 411 409 411 414 415 414 417 424 427 427 427 427 426 426 428 430 432 432 434 436 438 440 441 443 445 448 450 450 449 449 450 451 452 452 451 451 450 451 452 455 459 462 464 466 466 465 464 464 464 463 462 462 462 461 459 458 457 456 456 456 455 454 453 452 449 446 444 442 440 439 438 437 436 435 433 434 433 434 436 437 439 441 443 444 444 444 449 452 452 451 451 451 453 461 467 459 450 449 453 455 458 464 466 464 464 464 465 466 467 468 467 465 463 460 458 454 453 454 455 454 450 446 442 438 435 433 430 433 440 453 462 470 472 473 472 463 452 443 437 434 430 428 425 418 415 413 410 409 413 417 418 422 427 433 438 440 447 453 453 449 446 443 442 444 447 452 456 458 452 447 442 438 435 430 425 420 414 404 407 422 435 448 454 449 441 434 428 426 428 431 431 429 428 428 430 434 438 442 445 448 450 453 464 475 480 483 486 489 495 501 508 513 516 520 524 526 526 519 518 523 529 536 542 545 545 539 541 548 555 556 554 555 553 543 535 533 537 540 545 549 551 552 551 548 544 539 537 535 532 526 521 517 512 504 496 487 480 470 461 459 463 467 471 477 487 489 483 486 491 497 503 508 513 522 530 537 542 546 550 557 563 565 565 564 563 558 550 544 537 531 525 522 520 519 525 533 537 534 529 524 516 507 499 494 493 490 485 482 478 473 465 460 454 451 450 448 447 448 450 451 451 450 457 466 476 487 493 499 498 493 497 511 517 524 530 538 547 557 560 561 565 566 561 555 552 560 564 560 568 577 584 595 601 591 570 554 534 521 508 503 501 492 486 484 486 488 500 500 501 501 505 507 507 505 504 505 510 513 518 520 518
236 235 234 235 238 242 246 249 253 258 265 269 270 270 269 266 262 255 250 250 255 257 259 256 255 253 253 255 257 261 267 267 267 267 267 266 264 264 265 265 266 268 268 267 264 260 257 256 258 261 263 265 267 268 269 268 270 271 273 275 276 276 277 277 278 277 276 275 274 272 270 266 260 256 255 255 254 254 254 254 253 251 250 249 247 247 248 248 249 252 256 261 266 269 270 270 269 268 275 281 282 283 284 285 286 287 288 290 292 296 298 302 307 315 323 330 334 334 330 327 322 319 325 331 332 331 328 323 330 333 334 334 336 339 341 343 344 343 341 339 340 341 341 340 338 335 334 333 331 331 332 335 338 341 345 350 354 355 356 355 354 353 355 360 364 368 373 377 380 381 376 366 354 339 322 307 294 285 273 258 254 264 260 254 251 245 235 220 213 216 222 231 226 212 197 180 164 161 167 180 193 197 188 172 166 165 162 155 146 142 142 142 142 142 142 143 143 143 143 143 144 145 146 153 164 181 197 211 223 233 239 243 250 265 284 299 311 328 343 355 367 377 383 388 392 396 399 402 404 406 406 407 407 405 404 405 405 406 407 408 409 409 410 411 413 414 415 416 418 419 422 423 425 427 428 429 430 430 430 430 430 428 422 417 419 421 421 421 419 416 412 410 411 412 415 420 426 428 428 429 428 427 425 427 429 430 431 433 436 438 440 442 443 446 449 451 451 451 451 449 450 451 452 451 450 450 450 452 455 459 462 465 467 467 466 464 464 463 463 462 463 463 463 461 459 456 455 455 455 455 454 453 452 448 445 442 440 439 437 436 436 434 432 430 429 430 432 436 437 438 439 440 440 440 442 449 452 449 446 447 448 450 453 457 450 450 454 457 457 457 463 464 460 459 461 462 463 465 465 464 461 459 458 458 457 456 455 456 456 453 447 444 438 433 430 426 432 442 453 460 461 458 461 465 462 453 445 438 435 431 428 425 417 414 411 408 407 412 414 415 422 429 436 442 444 449 453 453 450 448 446 446 447 449 453 461 465 458 450 445 442 441 440 437 431 419 405 402 417 431 446 455 454 445 436 429 422 421 425 427 428 428 427 427 430 432 436 437 438 445 457 473 481 485 486 488 490 496 502 511 515 518 520 522 524 524 514 515 520 524 529 533 536 535 534 534 547 553 551 545 544 543 535 526 526 532 537 541 546 548 549 548 544 539 538 539 539 537 529 522 515 510 503 497 490 481 472 462 458 462 466 470 475 487 486 477 484 492 498 504 511 515 520 525 530 535 538 542 548 555 561 563 564 564 560 552 544 537 531 526 524 523 523 529 537 538 534 530 528 524 515 509 505 502 496 488 483 479 472 463 459 454 455 455 452 449 447 446 447 449 450 458 469 480 491 499 506 510 506 502 514 526 533 539 548 557 560 559 557 557 556 553 548 548 560 562 560 562 572 580 591 600 592 574 561 546 532 521 516 508 495 486 484 485 488 494 497 499 501 505 501 500 499 500 508 514 520 526 521 512
238 238 237 237 239 243 248 254 261 270 274 278 280 279 275 273 269 261 256 255 261 265 265 261 257 256 255 254 257 262 268 269 269 269 269 268 266 266 266 267 267 269 269 267 263 258 256 257 259 261 262 265 266 267 267 268 270 272 273 274 275 275 276 276 277 276 273 272 272 271 269 263 257 256 255 257 257 257 256 255 253 251 249 248 246 247 247 248 249 252 255 260 265 269 270 271 271 271 274 280 281 281 283 284 285 286 287 288 291 292 293 297 303 311 319 327 332 333 329 325 320 316 321 326 328 328 323 324 331 333 331 330 332 335 339 342 343 341 340 338 338 337 336 335 334 333 333 331 330 330 333 335 338 342 345 351 354 355 354 354 353 353 355 360 365 369 374 378 381 381 373 361 347 330 315 302 288 277 266 252 247 253 249 241 233 225 218 211 203 205 214 219 217 212 201 187 171 158 157 166 180 186 180 165 155 153 149 144 142 142 142 142 142 143 144 144 145 145 145 148 149 154 161 170 186 197 210 224 238 249 259 263 261 271 287 304 320 331 343 353 365 374 382 388 393 396 400 403 404 405 406 406 406 404 402 402 403 404 405 406 407 407 409 412 414 416 418 420 422 423 424 425 425 426 427 429 431 431 431 431 430 428 425 421 422 424 426 427 427 424 419 415 413 413 416 420 426 429 430 430 429 427 425 426 428 429 431 433 435 438 440 442 443 446 449 451 452 451 451 450 449 450 451 450 449 450 451 453 456 459 463 465 467 467 465 464 464 464 463 463 464 464 463 461 459 456 454 453 454 454 454 453 451 448 443 440 439 438 436 435 434 437 435 430 426 428 435 440 438 436 437 436 437 439 442 447 447 442 441 442 445 447 447 449 450 455 458 462 460 455 459 460 458 459 460 461 461 462 462 460 458 459 459 459 458 457 457 457 457 453 448 443 436 430 428 425 428 437 447 454 453 448 451 458 455 450 445 441 438 430 425 420 417 414 410 407 406 409 412 417 425 432 439 443 446 450 453 452 451 449 449 449 451 452 454 463 466 461 452 447 444 442 442 440 435 422 405 400 412 424 439 452 455 447 436 428 417 415 418 421 424 424 423 424 426 427 435 440 445 454 466 478 487 489 489 488 487 494 503 511 516 518 519 519 518 516 510 513 517 521 524 526 528 526 530 536 545 549 545 536 532 529 524 520 521 526 531 537 540 543 544 543 538 534 533 534 536 533 528 519 510 506 501 495 489 480 471 463 457 460 464 467 473 481 479 475 483 491 497 503 509 514 516 520 523 527 531 534 540 547 553 558 561 561 557 550 544 538 533 529 527 527 530 535 538 535 528 527 527 525 520 516 512 506 498 487 480 477 468 461 461 464 469 472 470 464 455 447 446 448 451 458 468 479 490 501 511 517 518 513 513 526 539 549 557 566 569 560 554 549 548 547 546 549 559 561 558 561 571 580 591 600 599 588 572 557 544 534 524 512 497 486 483 485 486 487 496 506 512 511 502 498 499 503 510 515 518 518 512 509
238 239 239 240 242 247 251 258 270 278 283 287 289 289 285 279 275 270 263 259 265 271 270 268 263 258 256 255 257 262 266 268 269 270 270 268 268 268 268 268 268 268 267 265 261 258 256 257 259 261 262 264 265 266 267 269 270 271 273 273 274 274 275 275 276 275 272 270 270 269 266 260 257 259 263 265 264 261 258 255 253 250 248 246 246 246 247 247 248 252 256 260 265 268 270 272 273 274 275 278 279 280 281 282 283 284 284 286 289 290 291 294 300 308 316 325 331 333 330 324 319 317 319 321 321 321 320 326 330 332 329 328 328 332 337 340 341 340 338 337 334 333 331 330 331 332 332 331 329 330 332 335 339 342 346 351 354 354 354 353 352 353 356 361 366 370 376 380 381 379 371 360 347 334 316 302 284 271 259 244 238 242 237 228 219 206 204 200 193 196 202 204 203 200 196 189 178 164 155 156 169 171 168 157 147 144 143 142 142 142 142 142 144 146 148 150 151 155 158 163 170 176 182 190 203 216 228 237 248 261 271 276 277 285 295 307 320 332 345 353 362 374 383 389 393 397 400 402 403 404 405 404 404 403 399 397 399 401 403 404 403 404 408 413 415 418 420 424 426 427 427 427 427 427 427 429 431 432 432 431 430 428 426 424 423 427 428 429 429 429 426 421 418 414 415 419 425 428 430 432 431 429 426 426 427 428 430 432 434 437 439 441 443 446 449 451 452 452 451 450 448 448 449 449 449 450 451 453 455 458 462 464 466 467 466 464 464 464 464 464 465 464 462 460 463 460 453 451 452 453 453 452 450 447 443 440 438 437 435 434 434 438 438 429 424 426 437 440 438 435 433 431 431 436 441 441 440 439 439 440 443 442 443 448 450 460 464 464 462 458 456 456 459 464 464 461 460 460 461 461 462 465 466 465 464 463 464 461 459 451 448 442 434 431 428 424 424 428 438 446 445 439 442 447 442 440 442 443 441 435 425 416 414 412 408 406 406 409 413 418 427 436 441 444 447 450 453 453 451 450 449 450 454 456 459 465 467 461 452 447 441 439 438 437 431 419 405 399 408 419 431 442 446 440 432 423 414 410 411 413 414 415 418 423 425 429 437 443 448 457 471 483 490 491 489 486 487 495 504 512 518 520 519 515 512 508 508 513 516 519 521 522 523 523 527 536 541 541 537 530 523 520 518 516 516 520 525 531 536 538 540 538 534 529 526 525 526 526 523 516 507 501 496 491 485 477 469 463 457 458 462 462 468 475 474 473 478 488 494 500 505 509 511 515 519 522 525 529 535 541 545 548 551 552 550 546 542 538 534 532 533 536 539 540 539 535 526 519 517 517 517 516 512 505 496 484 476 472 465 462 466 477 484 487 483 475 464 452 445 446 450 456 463 476 490 502 512 521 527 527 526 531 540 551 560 571 575 564 556 548 545 543 544 549 556 556 555 562 570 578 588 598 602 592 575 561 548 536 526 514 498 485 483 484 487 497 512 523 523 515 502 498 499 500 501 509 508 507 503 504
236 238 241 244 247 251 259 270 278 285 288 291 295 296 293 287 280 275 270 266 268 272 271 270 266 261 258 256 257 260 264 267 268 270 270 269 269 269 269 269 269 269 269 264 260 257 256 257 259 261 264 265 265 266 267 269 270 271 272 272 272 273 273 274 274 273 270 268 268 267 264 261 263 267 270 271 270 265 260 256 252 249 247 245 245 246 246 247 247 253 258 262 267 269 270 272 273 274 275 277 278 279 279 280 282 281 281 284 287 290 291 293 301 310 318 325 331 332 330 323 317 313 315 316 316 320 325 328 331 332 328 326 328 332 334 336 337 338 337 335 333 331 329 329 330 332 332 330 328 328 331 335 339 342 346 351 354 354 352 351 352 354 358 362 366 371 376 380 381 376 369 357 345 329 315 303 288 274 259 242 230 227 222 213 204 198 193 190 186 187 190 190 188 186 185 183 177 166 155 151 157 157 153 147 142 142 142 142 142 142 142 142 145 152 158 162 166 169 173 180 186 191 198 207 223 236 244 250 257 267 276 285 289 297 307 319 329 340 351 362 372 379 386 391 394 397 399 399 400 401 401 401 401 400 396 392 390 391 397 401 401 404 409 412 415 418 422 427 428 428 428 428 428 428 428 429 431 432 433 433 432 429 427 425 425 428 429 431 431 431 430 428 425 421 418 419 423 426 430 434 437 435 430 427 426 427 428 430 433 436 438 440 441 445 448 451 452 453 452 451 447 446 447 448 448 449 451 451 453 457 461 462 464 468 467 466 465 464 464 465 466 464 461 458 463 457 451 450 451 452 452 452 449 447 442 440 438 436 435 433 432 434 435 429 423 424 434 438 436 433 431 429 428 433 437 438 436 438 439 441 441 439 440 448 459 465 467 464 462 458 456 457 461 466 465 462 460 459 460 462 465 469 472 471 469 467 472 471 464 460 454 449 442 435 429 424 422 420 428 435 436 433 438 440 432 431 437 443 449 437 426 417 412 409 406 405 407 410 413 418 427 436 441 444 447 450 455 456 452 450 449 451 458 463 463 465 466 458 451 445 440 434 431 429 424 414 403 398 403 414 422 428 430 427 422 414 407 410 412 415 418 420 424 428 430 432 437 441 446 455 468 481 488 489 486 478 483 493 502 513 523 525 519 512 504 502 507 512 514 516 520 522 522 523 527 534 536 535 532 528 521 514 513 512 511 514 519 523 527 532 534 532 526 523 520 519 520 520 518 513 503 496 491 485 480 473 466 461 457 456 459 461 463 468 470 471 475 482 488 496 499 502 507 512 515 518 520 523 528 535 539 542 543 543 541 539 537 535 533 534 537 540 541 541 540 539 530 515 509 507 509 508 506 501 490 482 476 469 463 467 479 490 496 495 491 483 471 457 447 445 448 453 465 477 489 501 513 522 531 538 542 545 548 553 562 573 575 569 563 551 544 538 539 546 550 549 550 557 564 572 582 595 601 587 570 555 545 533 522 511 497 486 482 484 489 506 520 525 524 514 501 498 499 500 502 504 500 499 502 509
234 237 240 246 250 257 268 275 281 287 291 294 299 303 301 294 287 281 278 275 273 272 270 269 266 262 259 256 256 259 263 265 267 269 271 271 270 270 270 270 270 270 269 262 256 255 256 257 259 262 265 267 267 267 268 269 270 271 271 271 271 272 272 273 273 272 271 269 268 267 265 266 268 271 273 272 269 264 260 255 250 245 245 245 245 245 246 246 249 254 259 263 268 270 271 272 273 274 275 276 277 278 279 280 280 280 281 284 287 290 292 294 308 314 321 326 330 330 327 322 313 313 316 319 322 328 330 332 332 330 326 323 327 331 332 332 332 334 335 335 334 331 329 329 330 331 332 330 327 328 330 334 338 342 345 348 351 350 350 351 353 355 358 362 366 370 375 379 381 376 368 354 337 321 307 296 285 272 259 244 231 218 208 203 196 191 185 183 180 176 175 174 174 173 171 168 167 162 153 147 149 149 143 142 142 142 142 142 143 144 144 143 143 155 166 173 178 184 189 195 202 208 215 225 239 251 260 267 272 278 286 297 301 305 316 325 334 347 360 373 381 387 391 393 395 396 395 394 394 395 396 397 397 396 394 390 387 391 395 398 402 405 409 412 415 419 423 427 428 428 429 429 429 430 430 431 432 434 434 434 432 430 428 425 426 428 431 433 434 434 433 431 429 427 424 424 423 425 428 434 439 439 435 430 427 426 427 429 432 434 436 438 440 445 449 452 452 453 453 451 445 444 445 447 447 448 449 450 452 457 461 463 466 469 470 469 467 466 466 467 465 463 461 456 454 451 447 450 452 452 452 451 449 446 442 440 439 438 436 432 430 431 430 428 420 423 429 433 431 430 429 428 428 431 433 434 434 436 438 440 441 440 442 453 458 463 465 463 463 460 457 459 463 465 464 461 459 459 460 462 464 468 471 472 472 472 475 476 471 466 462 455 447 439 432 422 420 418 421 427 427 430 434 432 424 424 429 434 439 435 424 415 410 406 402 404 408 411 413 415 424 430 439 443 449 452 458 461 456 451 449 450 458 469 469 466 460 452 449 442 438 432 428 420 413 406 401 399 401 408 414 417 417 415 411 405 410 418 424 428 433 436 437 438 436 433 435 437 440 449 462 476 482 484 480 474 479 488 497 506 515 520 517 510 500 501 504 508 512 517 522 523 524 525 528 531 531 530 527 525 517 510 507 506 506 510 513 517 522 527 529 527 522 518 515 514 515 515 512 506 499 490 485 480 475 468 463 460 457 455 457 459 462 465 467 471 478 484 489 498 500 501 506 509 513 514 516 518 522 528 534 536 537 537 534 532 529 528 530 535 538 540 541 541 539 537 530 521 511 501 498 495 495 492 484 478 474 470 468 479 492 501 504 500 495 488 475 459 448 444 448 454 466 478 488 498 510 519 530 540 549 559 564 565 570 576 576 571 565 554 544 538 536 540 544 544 546 552 559 568 578 592 601 585 571 559 545 531 518 506 493 485 482 484 488 505 517 518 516 511 499 498 500 501 502 501 499 504 514 520
233 237 240 245 250 257 269 275 281 286 290 295 300 304 305 302 295 289 285 281 277 270 268 267 264 261 259 257 257 261 264 266 267 268 270 271 271 271 270 270 269 268 265 259 255 255 256 257 259 262 266 269 269 268 269 269 270 270 270 270 269 270 272 272 272 272 271 270 269 267 268 269 269 272 272 270 267 259 256 253 247 244 244 244 244 245 245 248 251 256 259 264 268 270 271 272 272 273 274 275 276 277 278 278 279 281 283 285 288 290 293 299 308 315 321 325 326 325 323 319 311 317 322 329 333 335 335 335 333 330 324 319 321 325 329 329 330 334 335 334 333 331 330 329 330 332 331 329 326 327 330 334 339 342 344 346 348 349 350 351 353 355 358 362 365 370 374 378 379 374 365 354 338 319 303 289 277 265 253 242 229 218 211 207 204 198 189 183 178 173 169 166 165 161 159 158 159 157 151 144 143 143 142 142 142 142 142 145 149 151 151 148 143 150 164 176 187 195 203 211 220 226 231 239 250 261 271 279 286 292 298 308 314 314 321 331 342 353 368 379 385 391 393 395 396 395 391 388 387 386 388 392 394 394 392 384 383 394 399 401 402 405 409 412 415 418 423 426 428 429 429 429 430 430 431 432 434 435 436 435 433 431 428 427 425 428 432 436 437 437 435 434 432 431 429 428 427 426 427 432 438 441 439 434 429 428 427 428 431 433 436 438 440 445 450 453 453 453 453 450 444 442 442 444 446 447 449 452 455 460 463 466 469 471 472 471 470 469 469 467 465 464 461 455 451 446 441 448 454 453 452 451 449 446 445 443 441 440 438 433 428 428 428 424 416 421 427 428 427 428 429 427 428 430 430 430 430 432 434 435 438 441 443 450 456 458 461 462 463 462 460 459 461 463 463 462 461 461 462 464 465 467 469 470 472 477 481 482 476 468 461 455 448 441 436 428 422 420 419 418 420 426 429 428 421 418 422 427 431 429 421 415 408 403 399 404 411 415 414 416 429 433 438 444 450 451 458 463 458 452 451 455 464 474 473 467 463 456 450 444 441 438 433 428 421 412 404 401 401 403 407 409 408 404 401 407 416 425 432 439 441 443 442 441 437 431 432 435 438 448 459 470 474 475 473 470 474 482 490 497 505 510 511 505 497 498 500 503 512 517 524 525 525 526 527 528 527 525 521 515 511 505 501 501 501 505 508 511 516 522 526 525 520 516 511 509 508 507 502 497 492 486 478 474 472 467 465 462 457 454 456 458 461 463 463 469 479 489 497 504 509 508 508 508 508 510 510 513 517 524 529 530 531 530 528 526 524 524 529 534 538 540 541 539 533 528 523 519 512 499 489 485 486 484 479 474 474 476 476 487 499 509 513 508 499 491 478 462 449 443 447 452 462 474 484 493 505 517 528 542 555 567 576 577 576 577 576 571 564 553 543 537 534 536 538 538 544 550 558 567 577 589 598 589 574 561 548 531 514 504 492 485 482 484 487 501 509 508 506 504 498 497 498 499 499 499 502 512 522 525
233 237 240 243 249 255 261 269 276 281 287 293 299 303 307 308 305 298 291 283 277 270 266 265 263 261 259 258 258 260 264 268 269 268 268 269 269 269 269 267 266 264 261 258 255 255 256 257 260 263 266 269 269 269 269 270 269 269 269 268 268 270 271 271 271 271 271 270 269 268 269 269 270 271 271 269 265 258 254 251 246 244 244 244 244 245 246 249 252 255 259 264 268 270 270 270 271 272 274 275 276 277 277 278 280 281 282 284 288 291 293 299 306 315 320 323 321 319 318 315 311 318 327 333 337 335 335 334 333 331 324 317 317 319 326 329 331 334 334 333 332 330 329 329 330 332 331 329 325 326 330 334 339 343 344 346 347 349 350 351 353 354 358 362 365 369 374 378 378 371 361 347 332 318 302 288 276 261 248 238 231 228 225 221 215 208 199 191 185 177 171 169 167 162 159 156 155 153 148 143 142 142 142 142 142 144 149 155 162 163 162 158 148 146 156 167 179 191 203 216 224 229 233 237 247 259 272 284 292 302 310 317 325 327 330 338 348 359 371 379 384 390 393 395 396 393 387 379 376 376 378 385 390 390 387 378 382 398 404 406 406 407 409 412 415 418 421 425 427 428 429 430 430 431 432 434 436 437 437 436 435 432 430 427 426 427 432 437 440 439 438 437 436 434 433 431 430 428 427 429 434 440 439 435 429 429 428 428 429 433 435 437 440 445 450 453 453 452 450 447 443 440 440 442 445 448 450 453 457 463 466 468 471 474 474 473 472 471 470 468 466 465 461 456 451 443 438 447 454 454 453 451 450 449 447 443 442 440 437 432 428 424 422 416 416 421 425 425 425 428 429 427 426 428 427 426 428 429 430 432 438 442 445 449 452 455 459 461 461 461 461 460 460 462 462 461 461 462 463 464 465 468 469 472 475 485 489 490 481 472 463 456 448 442 436 432 427 421 418 416 416 419 422 421 417 413 418 423 425 423 418 413 404 399 400 411 418 422 422 420 431 439 440 445 449 450 456 461 459 458 462 468 474 475 468 463 464 463 454 448 447 442 440 434 430 427 417 406 400 399 400 398 397 400 405 415 420 425 430 436 438 439 438 436 432 427 428 432 437 445 454 459 462 464 462 464 470 477 484 490 496 500 500 497 493 497 499 500 510 516 522 525 525 526 526 526 524 523 518 514 513 507 501 499 499 501 504 507 512 518 523 522 518 515 510 503 501 500 496 491 486 484 480 479 475 472 470 465 459 454 455 457 459 461 462 468 477 488 496 505 513 513 511 507 503 504 506 509 513 520 524 524 525 524 523 522 522 523 527 532 536 538 538 535 527 519 515 512 506 496 488 485 485 482 476 475 480 484 487 494 505 514 517 513 503 493 479 463 449 443 446 449 459 473 483 498 509 521 534 545 557 571 578 578 577 576 573 567 559 549 541 535 532 533 534 537 543 550 557 565 574 584 592 587 577 563 549 535 521 508 497 487 481 483 486 492 496 498 500 506 502 496 492 493 495 499 507 515 519 519
235 238 240 243 246 249 252 259 269 275 283 291 298 303 307 310 308 301 291 282 274 268 264 261 261 260 257 256 257 260 264 268 269 268 266 266 266 265 265 264 262 260 257 256 255 255 256 258 260 263 266 268 269 269 269 269 269 268 268 268 268 270 270 270 269 270 270 269 268 268 269 269 270 270 270 269 265 259 254 252 247 243 243 244 243 245 247 250 253 256 259 263 266 267 267 269 270 272 273 274 276 277 278 279 279 280 281 284 288 292 293 298 304 313 320 321 319 315 313 308 311 319 327 332 334 334 333 331 331 329 322 317 316 320 328 330 332 333 334 333 331 329 328 329 330 331 331 329 324 325 329 334 340 343 344 346 347 349 350 351 353 355 359 362 366 370 375 379 378 370 356 337 322 311 297 284 270 257 248 244 242 243 244 240 232 220 205 196 184 179 177 176 175 173 169 162 156 152 146 143 142 142 142 142 143 151 161 169 175 174 170 164 156 147 150 157 167 179 189 200 209 215 217 223 234 248 262 278 291 305 315 324 331 337 341 344 351 360 369 376 383 389 392 395 394 390 383 374 367 366 368 375 380 382 379 376 385 399 407 412 413 412 411 411 413 416 418 421 424 425 427 428 429 431 433 435 437 439 438 437 436 434 432 429 427 427 431 437 441 441 440 440 439 438 436 435 433 431 429 429 432 437 437 432 430 429 429 429 430 432 435 437 439 444 448 452 452 450 447 443 440 439 440 443 445 448 450 453 458 463 467 470 474 476 476 475 473 472 472 471 468 464 460 456 452 441 437 445 453 455 453 452 452 451 448 441 439 439 436 430 427 419 414 414 417 419 420 423 424 427 428 425 423 424 423 425 427 429 432 435 439 443 444 450 452 454 457 458 457 459 464 463 462 463 462 460 461 461 462 462 462 466 470 471 476 489 497 496 484 473 464 455 449 443 438 435 428 422 417 414 414 414 413 412 410 406 412 420 420 418 413 404 399 398 409 416 422 427 430 429 433 438 443 449 454 457 458 460 460 461 467 476 475 468 459 456 458 464 460 455 450 440 433 430 431 431 422 408 397 394 394 393 399 407 414 420 421 423 425 428 430 430 429 428 427 424 426 430 434 440 447 448 447 452 456 460 465 470 477 482 487 489 488 490 497 504 505 504 510 514 519 522 523 525 526 525 524 523 524 523 519 515 508 501 498 498 500 504 509 512 514 514 515 513 510 505 500 499 496 491 489 490 489 486 480 478 476 467 459 453 454 456 458 460 463 467 473 482 492 502 511 514 513 509 502 500 502 505 510 516 521 523 521 521 520 520 521 522 524 527 530 533 532 526 519 513 508 504 498 491 486 486 488 487 485 482 487 494 500 505 512 519 521 516 506 494 479 464 450 442 446 452 462 475 486 501 516 527 538 548 558 569 577 576 573 571 567 558 549 542 536 530 529 530 533 537 542 549 555 562 569 580 589 590 582 569 554 539 525 511 499 488 481 483 485 487 489 499 509 515 509 497 487 488 496 502 507 510 510 509
236 239 241 245 247 249 252 257 265 276 283 290 298 303 307 309 306 298 288 276 268 265 261 257 258 259 257 255 256 258 262 265 266 264 261 261 261 261 260 259 259 258 256 255 254 255 256 258 260 262 264 266 267 268 268 268 268 267 267 268 269 270 269 269 269 269 269 269 268 269 269 269 270 270 270 269 266 261 258 257 248 243 242 242 243 244 247 249 254 257 259 260 262 264 266 268 270 271 272 274 275 277 279 281 281 281 281 284 288 291 292 297 303 310 318 320 318 314 309 304 310 319 325 330 332 333 331 328 327 324 320 316 317 322 330 331 331 332 333 332 330 328 327 328 330 331 330 328 324 324 328 333 339 343 344 345 347 349 351 352 353 356 359 363 367 370 375 379 379 373 362 345 330 314 298 283 274 263 258 260 259 261 260 254 240 224 202 191 187 186 185 184 184 184 179 170 163 156 149 143 142 142 142 142 144 158 171 183 188 184 177 171 162 153 149 150 157 165 175 184 194 200 202 210 222 241 257 274 288 302 314 323 332 340 345 349 355 364 370 376 382 388 391 393 392 387 379 368 362 363 363 366 368 372 374 377 387 399 409 415 417 416 415 413 412 414 415 417 421 423 425 427 427 429 432 435 437 439 440 439 438 436 434 431 429 427 430 436 440 441 441 440 440 440 439 438 436 433 432 431 432 433 433 432 431 431 430 430 431 432 434 437 439 442 446 448 449 446 443 440 439 439 441 443 446 448 450 454 458 462 467 471 475 477 477 476 474 473 475 475 470 464 459 455 451 439 437 445 452 455 452 451 452 451 446 439 435 435 432 427 423 417 411 414 417 417 416 418 422 425 424 419 418 418 420 424 428 433 436 438 441 446 453 453 453 454 457 456 455 462 467 465 465 464 462 459 459 459 459 459 460 465 474 480 487 492 500 495 481 472 464 457 452 445 440 434 426 424 419 415 413 412 410 408 407 402 407 415 415 411 405 399 398 403 415 419 423 430 435 436 435 437 444 453 461 464 463 462 460 461 465 469 465 459 452 448 450 460 462 457 450 437 426 423 423 425 418 405 394 391 391 395 404 409 414 418 418 418 419 420 421 421 421 422 422 421 425 428 430 432 435 435 437 444 449 455 461 466 470 474 477 480 486 497 509 516 515 509 511 514 518 521 523 525 526 526 525 525 525 525 522 517 512 503 499 498 498 501 504 507 509 510 511 510 508 506 503 502 499 497 499 503 500 493 485 481 477 468 459 453 453 455 457 459 462 466 471 477 487 496 507 514 514 509 502 498 499 503 511 518 524 525 521 517 517 517 519 520 522 524 525 524 522 517 512 507 501 498 494 489 486 490 495 496 494 491 495 502 505 510 519 525 526 520 508 495 479 464 450 442 447 458 468 479 493 506 518 528 537 546 553 561 567 567 566 564 561 551 541 535 528 524 525 527 531 536 541 546 551 557 563 573 586 589 580 568 552 538 524 509 497 485 481 482 486 489 497 512 524 525 513 495 487 489 498 502 501 501 500 498
238 243 246 249 255 259 265 269 274 282 288 293 299 303 306 305 299 291 282 270 266 262 258 256 256 257 256 254 255 256 259 261 261 260 257 256 258 257 257 256 256 256 255 254 254 255 256 257 259 260 263 264 266 266 266 267 267 266 267 268 269 270 269 268 268 268 269 268 268 269 269 269 269 269 269 269 266 263 260 258 249 242 242 242 243 244 246 249 253 257 257 256 258 261 264 267 270 271 271 273 275 277 279 281 282 281 283 286 289 291 292 295 300 306 314 317 317 311 305 302 309 318 323 328 332 332 329 325 321 319 317 315 318 321 326 329 331 332 333 332 330 327 325 327 330 331 330 327 322 323 328 332 338 342 343 345 346 349 352 353 355 357 360 363 366 370 374 378 380 375 368 354 337 321 308 294 284 273 273 276 276 277 271 260 237 217 198 194 196 197 196 195 196 195 189 181 170 159 149 142 142 142 142 142 146 161 176 189 196 192 183 176 167 160 156 153 153 156 163 171 178 187 191 203 218 237 254 266 280 294 307 319 329 337 344 351 358 366 374 380 382 386 389 391 388 382 373 364 362 365 367 367 368 370 376 380 389 400 411 417 419 419 417 415 413 414 415 417 421 423 424 425 426 427 430 433 435 438 440 440 440 438 436 434 431 428 429 435 438 440 441 441 441 441 440 440 439 436 436 435 434 433 433 433 432 432 432 431 432 433 434 436 438 441 443 444 444 443 440 439 439 440 442 444 447 449 451 454 458 462 466 471 476 478 477 476 474 474 476 476 471 464 456 450 445 437 437 444 451 453 451 449 451 450 443 437 431 427 427 424 420 416 409 412 415 414 414 417 419 418 417 415 415 416 422 427 433 438 442 441 444 449 454 454 453 453 455 453 455 466 470 467 466 466 462 457 456 455 456 459 464 472 482 492 500 499 499 493 481 471 467 462 454 446 439 433 428 428 425 419 415 410 407 404 403 399 403 408 407 402 399 398 402 408 418 422 426 434 437 436 436 439 444 453 464 464 464 463 460 460 463 461 455 451 447 442 440 452 457 455 449 438 430 422 413 412 408 399 391 388 391 395 400 406 407 409 410 410 409 410 413 415 416 417 417 418 422 425 425 426 432 439 441 444 451 460 468 473 473 472 476 485 497 505 513 517 520 519 515 516 519 521 524 526 526 526 526 525 524 524 521 516 512 504 499 498 498 499 501 503 505 505 506 506 506 506 505 505 505 505 510 513 510 498 488 483 477 467 459 453 451 453 455 458 461 465 470 476 486 494 503 513 514 508 501 497 498 503 513 521 527 526 516 514 513 515 517 519 520 521 521 519 515 510 506 502 499 499 498 495 493 497 503 503 502 499 501 504 507 512 521 525 526 522 509 494 478 463 450 442 450 464 475 485 495 507 517 525 532 539 545 549 554 555 555 558 557 551 542 535 528 523 523 524 529 535 539 543 547 552 559 569 579 581 575 561 548 532 517 503 491 483 480 483 487 496 509 520 527 520 508 491 487 490 495 496 495 494 492 488
240 246 251 257 264 270 274 278 282 288 294 297 301 302 302 300 293 283 277 268 264 259 257 255 254 255 254 253 253 254 256 258 258 256 255 255 255 256 255 254 254 253 253 253 254 255 256 256 257 259 261 262 264 265 265 265 266 266 266 267 269 269 269 268 267 267 267 267 268 268 268 269 268 267 268 267 265 262 260 259 253 244 241 242 243 243 245 248 251 254 254 255 256 257 262 268 270 270 269 272 275 277 278 280 280 281 284 288 291 293 293 293 299 304 308 312 313 309 303 300 308 315 321 327 331 331 328 321 317 315 313 314 315 319 326 329 332 335 334 332 329 325 321 324 330 331 329 325 321 323 327 332 337 340 342 343 344 349 353 355 357 358 361 363 365 369 372 376 379 376 367 358 344 326 315 307 293 283 286 289 287 284 271 247 227 209 201 206 208 209 208 206 206 204 194 182 170 157 147 142 142 142 142 142 146 163 177 192 201 200 191 183 175 169 163 158 155 154 156 161 167 177 187 200 214 228 243 256 272 283 294 309 321 332 342 349 356 364 372 379 381 384 386 386 384 378 369 359 359 368 375 378 377 379 381 387 393 402 412 418 421 422 421 418 416 416 418 421 424 426 426 426 426 427 428 431 433 436 438 439 440 440 438 436 434 431 432 435 438 440 442 442 442 442 441 441 440 439 437 436 436 435 434 433 433 433 433 433 433 434 434 436 437 438 439 440 440 439 439 439 439 441 443 444 447 449 451 454 458 461 466 471 476 478 477 476 474 475 476 476 470 462 454 446 439 434 437 443 450 453 450 447 448 448 442 436 429 423 418 417 417 413 407 410 412 411 413 415 416 415 415 415 417 421 426 431 437 442 444 445 447 451 453 453 452 451 450 450 455 467 469 467 466 464 460 455 452 450 455 463 469 478 489 502 510 505 497 488 480 470 466 461 452 443 437 436 435 431 426 419 413 408 402 399 398 397 398 402 400 396 396 400 404 411 419 426 431 438 434 430 432 437 442 451 461 463 462 463 461 458 454 451 448 443 441 437 435 445 450 450 447 443 439 427 411 398 392 389 387 387 389 391 394 399 400 401 403 404 404 407 410 411 413 415 417 418 420 422 424 428 436 443 451 456 460 468 479 484 479 475 480 488 494 500 510 517 524 525 518 517 519 521 523 525 526 526 526 525 522 520 518 514 510 502 499 498 497 497 498 500 501 501 501 502 504 505 506 508 510 512 515 515 509 498 487 479 473 463 459 454 451 451 454 457 461 465 469 474 483 492 500 512 514 508 501 498 497 501 511 519 523 517 511 511 512 514 515 517 519 519 519 515 511 509 504 500 504 508 508 506 504 508 511 511 507 504 503 505 506 510 516 520 522 519 507 492 477 462 449 440 453 466 478 489 495 504 513 521 526 530 534 536 538 540 545 553 554 551 545 537 529 523 521 524 528 533 536 539 542 548 556 565 572 574 569 557 544 523 508 495 487 481 480 483 487 501 513 518 517 510 501 488 488 490 491 490 489 488 486 485
242 250 259 269 273 277 279 285 290 293 298 297 297 298 297 296 289 278 273 267 263 258 256 255 254 253 252 251 251 251 254 255 255 254 253 254 256 256 254 252 252 252 252 254 256 256 256 256 257 259 260 261 262 263 264 264 265 265 266 267 268 269 268 267 266 266 266 266 267 267 267 267 267 266 265 265 263 260 259 258 255 246 241 241 242 243 244 246 249 251 252 253 254 256 260 267 268 268 269 272 276 278 278 279 280 282 285 288 292 294 296 297 299 302 305 308 310 309 303 296 301 311 318 323 328 329 325 319 314 311 309 314 319 326 331 333 336 337 337 332 328 323 318 322 330 331 329 325 320 323 328 332 335 338 340 341 344 350 353 355 357 359 361 363 365 367 370 373 377 375 369 362 348 333 325 316 300 296 299 299 290 280 260 235 217 207 211 217 219 221 220 218 215 207 194 179 167 155 146 142 142 142 142 142 146 164 178 192 205 206 199 190 182 177 172 166 161 158 156 157 164 174 185 195 205 217 231 248 263 273 285 297 311 327 339 346 351 358 366 373 377 380 381 382 380 374 365 355 356 366 375 381 383 388 390 393 400 407 414 419 425 426 424 422 420 420 421 424 426 427 428 428 428 427 427 429 432 434 437 439 440 440 440 438 436 435 434 435 438 440 441 443 443 443 442 442 441 440 439 438 437 436 436 435 434 434 434 433 434 434 435 436 437 437 438 438 438 439 439 439 440 442 443 445 447 449 451 454 458 461 466 470 475 477 477 475 473 475 476 476 468 459 451 443 435 428 434 442 448 453 450 442 441 442 439 433 427 421 415 413 413 409 406 407 409 409 411 412 413 414 415 418 421 425 430 436 440 444 446 447 449 451 451 450 448 444 443 449 456 465 468 466 464 460 456 452 450 451 457 463 471 482 495 509 512 502 493 485 476 467 459 454 449 443 439 439 439 434 429 416 410 407 403 399 395 395 395 397 396 393 396 400 405 413 420 427 432 431 428 427 429 435 441 449 458 459 458 459 459 456 453 449 446 438 435 431 429 437 442 444 443 441 439 432 417 399 388 384 383 388 392 394 395 396 398 401 405 409 414 416 416 417 417 417 421 427 429 425 425 429 435 442 453 462 467 474 484 487 480 477 481 486 487 492 505 515 520 521 517 517 519 521 523 524 526 526 526 524 517 515 515 511 506 501 499 498 497 497 497 498 498 498 499 500 502 503 505 508 512 514 515 503 497 490 482 473 465 461 460 455 450 450 453 455 459 463 467 474 482 490 497 510 515 511 503 498 497 499 506 512 514 511 510 512 513 513 514 515 517 518 518 516 515 514 512 510 513 516 516 513 512 514 515 513 509 505 503 502 502 505 510 515 518 516 505 489 475 460 447 440 449 464 477 487 491 498 507 516 519 521 522 522 523 530 542 550 552 552 546 538 529 522 520 524 527 530 532 534 538 544 551 557 561 564 563 554 541 523 506 491 484 480 480 483 487 500 508 509 506 499 492 487 487 487 487 486 485 485 485 486
