ncols        673
nrows        36
xllcorner    -2092425
yllcorner    1500555
cellsize     30.000000000000
NODATA_value -32768
43 44 44 44 44 44 44 44 44 44 45 45 45 45 45 45 45 45 46 46 46 46 46 46 46 47 47 47 47 48 48 49 49 49 50 51 51 52 52 53 54 54 56 60 61 60 60 64 66 70 74 82 92 101 116 107 88 75 90 102 107 115 118 112 109 108 109 116 127 129 120 117 117 119 119 119 118 119 120 122 127 139 155 163 169 170 171 167 153 145 145 144 146 145 143 142 143 143 145 145 147 154 167 180 192 193 187 164 144 148 159 168 169 161 150 132 135 153 171 190 186 172 167 170 187 199 195 183 167 161 159 158 157 156 165 176 176 177 170 171 181 169 164 164 163 163 163 165 165 164 165 164 159 171 179 178 174 177 185 195 199 190 178 164 158 164 175 185 191 192 187 174 165 165 167 172 175 177 174 172 168 166 167 167 166 164 162 160 158 156 155 153 152 150 148 148 148 148 146 148 148 149 149 149 149 149 150 151 151 151 152 153 153 154 155 155 156 157 157 158 159 159 160 161 161 162 162 163 164 165 163 156 154 163 166 166 166 166 166 166 166 165 165 165 166 168 169 170 170 171 172 174 175 177 179 181 182 183 184 185 186 186 187 187 187 186 180 177 189 191 191 192 194 196 196 196 194 194 195 195 194 197 199 199 194 188 194 204 201 193 199 208 199 190 181 195 210 216 216 211 204 208 212 220 224 220 214 200 189 198 204 210 224 231 233 234 236 233 229 235 241 238 229 220 211 205 198 188 181 193 198 203 209 222 234 240 233 217 208 203 200 196 195 197 199 202 203 204 198 195 197 195 192 195 196 198 202 205 206 206 206 207 209 211 212 214 214 215 220 218 217 218 221 221 223 230 235 236 239 240 246 241 243 242 245 243 237 228 221 220 219 218 217 221 225 230 237 238 235 231 231 226 223 225 214 207 207 206 206 207 210 206 206 209 209 211 212 216 218 215 215 214 213 213 216 221 224 230 240 250 255 257 260 269 283 298 304 307 308 308 306 303 298 294 291 288 282 272 261 252 244 239 235 231 224 217 210 206 210 217 227 228 221 210 199 201 202 202 204 206 206 206 208 210 212 213 215 217 218 219 219 222 233 243 247 249 252 255 259 263 266 273 280 284 289 289 285 283 293 296 300 304 304 305 301 292 287 285 263 278 290 292 285 272 260 249 241 239 241 254 256 244 239 244 251 244 236 235 231 219 213 225 248 266 278 283 275 265 272 282 277 263 249 243 253 266 268 261 253 255 265 266 257 242 237 237 238 248 262 267 260 246 238 238 244 256 258 255 255 258 253 245 238 234 232 231 231 230 232 238 244 235 230 229 229 230 230 231 231 230 230 232 233 234 235 239 246 257 260 255 254 261 264 263 252 259 264 265 264 262 262 263 271 271 270 269 271 272 272 271 266 264 272 272 267 263 262 259 256 256 260 264 270 274 278 278 276 276 277 276 267 261 262 261 262 263 264 263 262 264 265 265 265 263 262 263 265 267 269 270 271 272 273 273 274 278 283 287 291 287 280 274 274
43 44 44 44 44 44 44 44 44 44 45 45 45 45 45 45 45 45 45 46 46 46 46 46 46 46 47 47 47 48 48 48 49 49 50 50 51 51 52 52 53 54 54 56 56 57 60 62 65 68 74 83 91 101 111 95 78 74 91 103 107 115 118 109 105 104 108 115 127 132 122 117 115 117 117 116 116 118 120 121 130 144 155 161 163 163 164 164 154 143 141 140 142 142 140 140 141 141 142 145 148 156 169 181 190 191 187 162 144 141 151 159 157 149 141 127 137 158 176 183 175 164 162 166 183 196 192 179 165 159 158 157 156 154 155 162 164 164 162 172 180 165 163 162 161 162 163 165 164 162 163 160 160 168 181 177 170 172 178 188 195 189 178 165 158 161 176 185 187 187 182 175 165 163 164 166 167 168 167 165 163 161 161 161 161 160 159 158 156 155 154 153 152 150 148 148 147 147 143 139 142 147 148 148 148 148 149 149 150 151 152 152 153 154 154 155 156 156 157 158 158 159 160 160 161 161 162 162 162 161 154 153 162 165 165 165 165 165 165 165 165 164 164 164 165 166 168 169 169 170 171 173 175 176 178 179 181 182 183 184 185 185 186 186 185 183 176 182 189 189 189 190 191 192 192 191 189 189 191 192 190 191 195 194 191 187 192 199 194 189 198 204 194 186 184 198 208 212 213 207 200 205 212 220 220 212 207 195 188 197 203 213 223 223 224 230 231 224 224 234 239 234 228 223 213 202 197 186 185 193 199 204 216 220 223 233 240 229 214 208 207 204 196 193 196 198 199 198 194 192 190 191 192 195 201 209 212 213 212 208 206 207 212 218 222 226 228 229 228 221 221 220 226 228 231 239 241 240 238 235 235 231 229 230 231 230 227 220 215 212 211 211 211 212 213 216 223 226 223 221 217 213 213 213 207 205 204 205 205 205 205 197 205 209 209 210 211 211 211 209 210 210 211 213 215 219 222 226 236 245 255 267 270 271 280 292 300 305 309 304 295 288 284 276 274 272 273 272 268 261 253 247 244 237 225 217 209 201 208 217 221 219 216 205 199 202 202 202 202 203 205 207 208 211 213 216 218 219 220 220 222 222 228 240 250 255 259 261 267 271 273 276 284 290 295 296 293 295 300 302 303 301 295 296 299 290 277 270 255 273 289 292 287 280 268 255 243 236 239 252 252 242 236 239 242 238 233 232 229 213 216 235 257 274 279 277 271 261 270 279 273 259 247 242 253 269 267 255 246 252 262 266 256 242 237 236 240 253 264 263 254 241 236 239 249 256 254 250 252 256 250 242 237 232 231 231 230 230 231 236 241 233 230 228 228 229 229 230 230 231 232 236 236 234 240 248 259 260 258 250 255 260 260 256 249 259 263 264 261 255 259 267 270 270 269 268 270 270 270 270 265 261 270 271 269 265 261 256 255 256 264 271 275 276 275 275 274 275 276 274 267 260 260 260 261 263 262 261 262 265 264 264 263 261 263 264 265 267 268 269 270 272 273 274 275 280 285 288 287 284 274 272 274
43 44 44 44 44 44 44 44 44 44 45 45 45 45 45 45 45 45 45 46 46 46 46 46 46 46 46 47 47 47 47 48 48 49 49 49 50 50 51 51 52 53 54 54 54 55 57 60 61 66 76 85 93 98 100 85 72 80 98 103 104 113 114 105 101 102 107 113 125 131 122 116 115 115 115 115 116 117 119 122 133 150 157 159 158 158 160 160 152 141 139 139 139 139 138 139 140 140 141 146 152 165 180 186 186 187 186 166 148 136 141 152 150 139 130 129 144 164 175 169 166 159 158 170 186 198 197 184 170 159 157 156 155 154 153 154 157 158 159 171 178 164 161 160 160 160 162 166 166 159 160 157 160 166 183 175 168 168 172 183 189 188 179 166 157 160 173 181 182 180 174 170 166 163 162 162 162 162 161 160 159 158 158 157 157 157 156 155 155 154 153 152 151 150 149 148 147 148 149 148 143 144 147 148 148 147 147 148 150 151 151 152 153 153 154 155 155 156 157 157 158 159 159 160 160 161 161 161 160 157 153 158 161 163 164 164 164 164 164 164 164 164 164 164 165 166 167 168 169 170 171 172 174 175 177 178 179 181 181 182 183 184 185 185 184 177 179 185 187 187 188 188 188 188 187 186 184 184 186 188 186 185 190 190 187 185 190 193 188 188 196 197 191 182 188 199 206 207 209 202 199 208 215 218 217 213 207 194 186 197 204 213 219 216 223 227 224 218 225 233 234 228 218 211 204 197 186 181 189 194 199 207 212 211 214 224 237 231 220 215 216 214 203 194 194 196 197 195 190 188 190 193 197 205 212 220 226 225 218 211 208 207 211 218 229 236 239 237 228 222 227 225 230 234 241 245 237 231 226 223 223 221 220 222 221 219 220 216 210 207 206 206 207 207 207 209 210 214 212 210 208 206 204 204 203 202 202 203 204 200 194 195 207 209 209 209 209 208 208 208 208 209 211 213 214 216 221 225 231 238 251 265 274 277 279 285 294 303 307 297 286 278 271 263 261 258 259 259 261 264 259 252 247 240 228 218 205 199 204 210 208 206 207 198 200 204 203 202 202 203 207 209 209 212 215 221 223 222 223 223 225 228 227 232 246 259 264 268 275 283 283 284 289 294 298 299 300 301 302 300 296 291 284 288 297 292 275 260 254 269 286 291 289 284 272 258 246 236 237 246 250 241 233 233 233 232 231 225 217 213 218 239 262 271 267 263 258 253 269 279 272 257 245 241 255 269 269 257 244 246 256 263 253 240 236 236 245 258 261 257 248 237 235 242 250 252 248 245 251 254 251 245 239 233 231 231 230 229 229 232 236 232 230 228 227 228 228 229 230 234 239 245 247 246 252 257 257 258 255 249 254 257 254 250 250 256 262 263 257 256 263 267 268 268 264 266 268 269 269 269 265 261 265 268 266 264 261 256 253 258 268 273 274 272 272 270 271 276 272 266 265 258 257 259 262 263 261 258 259 265 264 264 260 262 263 264 265 266 267 269 269 271 273 276 278 281 284 286 281 278 274 270 272
43 44 44 44 44 44 44 44 44 44 45 45 45 45 45 45 45 45 45 45 46 46 46 46 46 46 46 46 47 47 47 47 48 48 48 49 49 49 50 50 51 52 53 53 54 54 55 56 59 68 78 83 84 89 87 75 68 88 100 101 105 112 110 101 97 100 105 109 121 131 123 115 114 114 114 114 115 116 120 127 139 152 155 155 154 155 156 157 149 139 137 137 137 136 138 139 140 140 144 151 160 175 184 182 178 181 182 170 152 135 132 142 141 130 129 140 153 170 176 162 158 155 158 176 191 198 195 191 181 164 157 155 153 153 152 151 154 153 158 170 173 162 159 158 158 158 160 167 168 158 158 155 161 164 174 171 166 165 168 175 183 183 177 164 156 158 167 172 172 171 167 164 162 161 160 159 158 158 157 157 156 155 155 154 154 154 153 153 153 153 152 152 151 150 149 148 148 148 148 149 145 140 144 148 148 145 147 148 149 150 151 152 152 153 154 154 155 156 156 157 157 158 159 159 160 160 161 161 158 153 157 160 161 162 163 163 164 164 164 163 163 163 163 163 164 165 166 167 168 169 170 171 173 174 176 177 178 179 180 181 182 183 184 184 183 173 182 185 185 186 186 186 186 185 184 182 182 182 181 182 183 182 185 186 184 182 185 186 183 186 191 189 185 182 191 196 198 197 203 198 199 207 212 214 216 214 207 192 185 198 203 212 215 212 220 221 216 217 224 226 225 224 218 208 202 195 176 186 191 194 197 201 204 205 209 218 229 221 214 211 212 215 209 195 194 194 193 191 189 195 202 204 203 208 218 228 235 229 221 214 211 211 211 217 230 240 245 240 228 229 233 232 234 241 246 235 225 218 215 215 213 211 213 214 212 210 215 212 204 202 201 202 203 203 203 203 201 206 211 208 205 202 201 201 201 201 201 202 202 194 191 201 208 208 208 208 208 207 208 208 208 208 210 212 213 216 220 223 228 236 248 254 263 275 287 294 300 304 305 295 282 273 261 253 249 247 245 247 248 253 258 255 249 242 232 219 203 199 200 202 201 198 195 194 203 205 203 202 202 204 206 207 209 213 219 228 229 227 228 226 229 234 236 232 240 256 268 276 283 291 293 293 294 297 300 300 300 298 298 295 288 278 273 283 295 295 282 265 248 263 281 287 284 278 268 256 245 235 235 240 246 239 232 231 230 230 229 225 211 214 230 246 261 256 249 246 247 251 270 279 270 256 242 240 254 266 269 260 245 238 249 257 247 237 235 237 250 257 254 254 247 237 236 241 244 245 243 244 250 252 252 251 245 238 233 230 228 228 228 229 232 232 229 228 227 226 226 227 231 240 246 248 251 254 253 252 253 255 252 249 253 253 247 247 252 258 263 258 254 261 264 265 266 264 263 264 265 266 267 267 265 259 261 265 262 258 256 253 254 263 270 271 271 268 267 268 272 273 265 261 260 256 256 257 262 263 260 257 258 262 262 261 258 262 263 264 265 265 267 268 268 271 275 280 279 279 283 282 276 274 271 268 269
43 44 44 44 44 44 44 44 44 44 44 45 45 45 45 45 45 45 45 45 46 46 46 46 46 46 46 46 46 47 47 47 47 48 48 48 48 49 49 49 50 51 52 52 53 54 54 56 63 71 75 75 76 77 68 65 78 97 99 99 103 112 104 99 95 97 104 111 122 134 126 116 113 113 113 113 114 115 119 130 144 151 152 151 150 150 151 152 144 135 134 134 134 135 137 139 140 147 155 163 170 177 177 174 171 174 174 166 153 139 128 131 129 122 137 151 165 178 176 160 154 153 161 179 190 191 189 188 184 168 155 153 152 152 151 150 151 151 155 167 168 159 156 156 156 156 158 163 170 159 154 154 158 160 167 168 163 162 165 168 172 174 170 162 157 159 163 164 164 163 162 160 158 158 158 157 156 155 154 153 153 153 152 151 151 151 151 151 151 151 151 151 150 150 149 148 148 148 148 148 149 145 138 143 142 144 148 148 149 150 151 151 152 153 153 154 155 155 156 156 157 158 158 159 159 160 160 160 157 152 159 160 161 161 162 162 163 163 163 163 162 162 162 163 164 165 166 167 168 169 170 170 172 173 175 176 177 178 179 180 180 181 182 183 181 172 181 184 184 184 184 184 184 183 182 181 181 180 179 179 178 178 180 181 183 180 179 181 182 184 184 185 184 184 190 189 188 194 201 198 195 202 207 210 212 210 202 188 187 197 202 210 211 210 214 212 211 217 219 219 220 220 219 214 206 198 179 184 192 193 195 197 198 202 210 221 226 215 206 200 200 205 205 196 193 192 190 188 194 202 207 211 215 216 223 233 238 234 226 218 216 217 217 218 227 240 246 240 236 237 241 241 240 244 240 226 217 210 206 205 205 205 206 205 204 205 211 209 200 198 198 199 200 200 199 197 197 205 211 206 203 201 200 200 200 200 200 200 198 191 196 204 206 207 207 207 207 207 207 208 208 208 210 212 215 218 224 228 233 239 244 248 254 267 281 292 295 296 301 295 286 275 262 251 240 234 232 236 238 245 254 255 246 234 224 214 203 199 198 195 195 191 196 200 204 204 203 200 202 206 208 210 214 219 225 233 236 235 236 235 235 242 246 243 242 250 265 278 287 294 295 295 296 297 297 295 289 289 294 291 282 269 264 281 295 296 286 270 249 252 273 281 277 269 261 252 242 232 233 235 237 235 231 230 230 229 228 227 211 220 240 250 247 242 240 241 246 257 274 278 267 252 240 238 250 260 266 261 246 236 239 249 241 234 235 238 250 254 245 245 239 233 235 237 237 237 238 245 249 250 251 252 246 238 232 227 226 227 227 227 229 231 229 228 227 226 225 229 236 242 246 247 249 249 246 245 246 251 249 248 250 248 246 249 257 260 259 252 256 260 262 263 264 260 262 263 261 265 265 264 265 260 255 259 258 253 252 251 257 266 270 270 270 264 262 266 269 268 263 258 256 255 255 256 259 260 258 255 258 259 257 256 259 261 263 263 264 265 266 267 268 273 277 280 273 276 280 279 273 270 270 268 267
43 44 44 44 44 44 44 44 44 44 44 45 45 45 45 45 45 45 45 45 45 45 46 46 46 46 46 46 46 46 46 46 47 47 47 48 48 48 49 49 49 50 51 52 53 53 54 57 63 64 62 61 63 62 68 82 97 98 96 97 103 107 100 95 94 99 108 118 129 137 127 116 112 111 112 112 112 115 121 133 146 148 148 147 146 146 148 145 139 133 133 133 134 134 137 141 149 159 165 167 168 171 172 164 162 166 164 160 153 142 128 123 121 128 144 156 169 174 167 155 151 151 161 177 186 186 180 178 179 169 155 151 151 151 150 149 149 149 156 168 165 157 154 153 153 153 154 157 165 162 154 153 155 157 162 164 161 159 160 164 166 166 164 161 158 156 158 158 157 156 157 157 156 156 156 155 154 152 151 150 150 149 149 149 149 149 149 150 150 150 150 150 149 149 148 148 148 148 148 148 148 149 145 139 141 146 148 148 149 150 150 151 152 152 153 154 154 155 156 156 157 157 157 158 158 159 159 159 159 151 159 160 160 161 161 161 162 162 162 162 162 162 162 162 164 165 166 167 168 168 169 170 171 172 174 175 176 177 177 178 179 180 180 179 174 173 180 182 183 183 183 183 182 182 181 180 179 178 177 176 176 176 177 178 178 178 177 178 179 181 181 182 182 185 187 183 184 193 199 194 190 198 201 206 207 207 196 184 188 197 201 208 206 206 208 207 210 214 216 216 216 217 217 215 209 200 183 177 189 192 193 194 197 206 215 219 217 212 205 197 193 197 199 194 192 190 187 185 189 194 199 206 213 219 226 235 241 237 230 227 227 227 228 226 227 238 248 248 247 246 249 250 248 240 228 219 211 204 201 200 201 201 201 201 200 203 207 205 197 195 195 197 197 197 196 195 198 205 207 203 202 200 199 199 199 199 199 198 193 191 201 203 205 206 206 207 206 207 208 209 209 210 212 214 216 221 229 236 239 240 241 245 251 265 275 274 277 279 286 287 279 271 263 251 240 232 225 226 230 236 248 251 243 231 219 206 200 197 196 189 189 193 199 201 201 202 200 199 204 208 212 218 221 227 234 240 242 244 244 245 245 250 257 254 251 249 256 273 283 286 290 293 294 293 294 291 281 281 290 289 279 263 258 277 291 290 284 269 250 245 262 273 271 263 253 247 238 232 231 232 231 231 231 230 229 228 227 225 211 217 238 240 237 236 237 244 255 267 277 278 266 251 240 235 244 253 261 263 249 236 231 238 235 234 236 243 254 252 238 233 230 233 235 236 237 242 244 247 249 249 247 246 240 232 229 226 226 226 227 227 227 227 227 227 226 225 225 232 237 239 239 240 240 239 237 237 240 243 244 244 245 246 249 253 260 259 253 250 257 258 261 263 263 256 262 259 260 265 264 261 264 261 254 254 255 251 249 250 257 263 267 268 269 264 258 258 263 263 259 256 255 254 254 255 256 256 255 253 256 255 255 257 259 260 262 263 264 264 264 265 268 273 276 274 272 274 277 276 270 268 270 267 265
43 44 44 44 44 44 44 44 44 44 44 44 45 45 45 45 45 45 45 45 45 45 45 46 46 46 46 46 46 46 46 46 46 46 47 47 47 48 48 48 49 49 50 51 52 53 54 56 58 61 61 61 63 72 90 99 97 95 95 97 105 107 98 91 94 101 112 126 134 137 127 116 110 110 110 110 110 117 125 138 145 146 144 143 143 143 141 136 134 132 131 132 133 135 139 148 158 163 165 162 162 167 170 162 153 155 156 154 150 139 125 121 131 141 150 160 165 164 156 150 148 150 160 173 179 178 172 170 172 168 155 151 150 149 148 148 147 149 157 168 162 154 152 151 151 151 152 153 158 160 154 152 154 155 158 159 157 155 154 157 159 159 158 156 154 151 152 153 153 152 152 153 153 153 153 152 151 150 148 147 146 147 147 147 147 147 148 148 148 149 149 148 148 148 148 147 148 148 147 148 148 148 147 143 141 146 147 148 149 149 150 151 151 152 153 153 154 155 155 156 156 157 157 157 158 158 159 159 158 152 158 160 160 160 161 161 161 161 161 161 161 161 161 162 163 165 166 166 167 168 169 170 171 172 173 174 175 175 176 177 177 178 178 175 172 177 180 181 181 181 181 181 181 180 180 179 178 177 176 176 175 176 176 176 176 177 177 176 178 179 179 179 182 184 184 182 185 191 193 187 187 195 200 202 203 202 191 182 190 197 201 203 201 200 201 206 210 211 212 212 213 214 214 213 210 201 191 177 188 191 191 191 200 213 217 215 213 212 211 201 192 190 193 192 191 187 184 188 191 193 195 203 210 217 226 235 245 241 236 237 238 236 238 240 239 246 255 259 257 255 257 258 250 237 224 213 207 201 200 199 199 199 199 199 201 204 206 198 193 193 193 195 196 195 195 197 200 201 201 199 200 199 199 199 199 198 198 197 189 197 203 204 205 206 207 206 206 207 209 211 212 213 214 214 218 220 228 236 237 237 241 248 257 268 265 259 260 259 272 277 266 258 251 242 237 231 222 218 223 231 242 247 244 233 220 205 199 195 189 189 194 198 199 199 199 198 198 200 205 209 213 221 227 234 242 247 249 250 254 255 255 256 263 265 264 259 258 263 272 279 288 294 291 284 286 283 272 276 284 284 271 253 253 271 284 284 279 267 252 241 250 263 265 260 252 243 235 231 230 230 230 230 230 229 229 228 227 221 209 218 229 233 234 235 241 254 268 275 278 277 267 252 241 233 239 248 260 264 252 240 229 227 229 234 240 253 258 246 233 228 230 232 235 241 248 252 254 254 253 250 244 239 236 235 232 226 226 226 226 226 226 226 227 226 226 224 225 231 234 235 234 233 233 232 232 233 235 236 238 238 241 246 250 254 256 253 249 252 255 258 261 262 259 256 258 255 261 265 264 257 261 263 256 251 251 248 249 253 258 263 266 267 266 266 264 257 255 256 257 256 255 253 253 254 254 254 253 252 253 254 256 258 258 260 261 262 263 264 263 263 267 271 271 268 269 272 274 273 268 264 268 266 263
43 43 44 44 44 44 44 44 44 44 44 45 45 45 45 45 45 45 45 45 45 45 45 45 45 46 46 46 46 46 46 46 46 46 46 47 47 47 48 48 48 49 50 51 52 54 55 59 63 69 77 82 81 91 101 99 93 92 94 98 105 105 97 90 94 102 114 128 135 133 122 113 109 109 109 109 109 117 128 139 142 142 140 138 140 140 134 131 130 129 131 132 134 139 145 154 157 158 157 156 159 164 166 162 151 147 149 148 144 134 121 126 139 147 153 158 159 156 151 146 145 149 160 168 172 171 167 165 166 166 155 151 149 148 147 146 146 150 159 165 159 152 151 150 150 150 150 151 153 157 152 149 151 152 153 155 154 151 151 152 154 153 153 152 151 149 150 150 150 150 150 151 151 151 151 150 149 147 146 146 146 145 146 146 146 146 147 147 148 148 148 148 148 148 147 147 147 147 147 147 147 147 148 146 140 145 147 148 148 149 150 150 151 152 153 153 154 154 155 155 156 156 156 157 157 157 158 157 154 153 158 159 160 160 160 160 160 161 160 160 161 161 161 162 163 164 165 166 167 167 168 169 170 171 172 173 174 174 175 175 176 176 174 171 177 178 179 179 180 180 180 180 179 179 179 178 177 176 175 175 175 174 175 175 175 175 176 176 176 177 177 176 184 183 181 180 184 187 185 184 193 197 197 198 199 198 188 182 192 197 198 198 197 195 202 206 208 208 208 208 209 211 212 211 210 200 192 177 185 190 189 193 207 217 216 213 212 216 212 201 192 188 190 190 187 182 188 197 199 196 199 209 220 225 232 239 243 242 243 244 243 246 251 252 254 256 263 267 265 263 264 258 244 234 223 213 207 203 202 200 198 197 197 197 202 208 205 197 191 192 193 194 195 195 196 203 200 196 195 196 197 198 198 198 198 197 198 193 189 202 204 204 206 207 207 209 209 214 215 213 213 218 218 218 220 222 226 231 233 236 242 253 263 265 254 247 247 251 271 274 260 250 241 232 227 223 220 213 217 226 231 235 242 236 221 206 198 192 188 194 198 199 199 198 196 198 203 206 209 214 217 221 228 237 245 253 256 257 266 267 267 264 268 275 276 272 267 266 272 284 294 295 288 278 273 270 263 273 278 276 263 245 250 266 273 275 275 269 259 246 240 251 260 258 248 241 236 232 231 230 229 229 228 228 228 228 227 224 210 208 223 232 235 239 251 265 275 275 276 277 269 254 241 232 236 247 261 266 256 243 231 225 227 235 247 263 254 237 229 228 231 235 237 244 255 260 262 261 256 250 243 243 243 245 235 226 226 226 226 226 226 226 226 226 225 223 225 229 231 231 231 230 230 230 231 231 232 234 236 236 240 245 248 249 250 249 249 252 257 258 258 259 256 255 254 254 261 263 262 255 256 260 255 250 249 246 250 257 263 265 265 265 264 263 264 262 251 250 255 257 255 252 252 252 252 252 251 251 252 254 256 257 258 259 260 262 263 263 262 262 264 265 265 265 268 270 271 270 266 262 266 263 262
43 43 44 44 44 44 44 44 44 44 44 44 45 45 45 45 45 45 45 45 45 45 45 45 45 45 45 45 46 46 46 46 46 46 46 46 47 47 47 48 48 49 49 50 52 54 56 62 67 69 71 75 84 93 101 96 90 91 92 95 102 105 99 91 94 102 113 126 132 126 115 110 108 108 108 108 110 118 131 138 139 139 136 133 136 131 128 127 127 129 131 133 136 142 146 150 151 149 148 152 158 161 162 160 149 143 143 143 139 128 120 130 140 147 151 154 153 149 145 143 144 149 159 164 167 166 163 162 163 163 155 148 147 146 146 145 146 154 161 162 157 151 149 148 148 148 148 149 150 152 150 147 149 150 150 151 150 148 147 147 148 146 148 149 149 147 147 148 147 148 149 149 149 149 148 147 146 146 145 145 145 145 145 145 145 145 146 146 147 147 147 147 147 147 147 147 147 147 147 147 147 147 147 147 142 141 147 147 148 149 149 150 151 151 152 153 153 154 154 155 155 156 156 156 156 156 156 156 152 154 158 159 159 159 159 160 160 160 160 160 160 160 160 161 162 164 165 165 166 167 168 169 170 171 171 172 173 173 174 174 174 174 172 173 176 177 178 178 178 178 179 178 178 178 177 177 176 175 174 174 173 173 173 173 173 173 173 174 175 175 176 178 179 179 178 178 183 184 183 188 194 195 194 195 196 193 184 184 194 196 195 196 195 198 203 204 204 203 202 205 207 208 210 210 209 196 185 177 187 190 189 194 212 218 214 210 213 222 215 200 191 188 188 186 182 186 197 204 208 204 205 213 222 226 233 236 231 232 239 237 235 241 250 254 262 267 269 273 272 270 268 254 241 230 219 212 208 205 205 200 197 195 195 196 203 208 206 201 196 195 195 194 194 196 200 205 199 193 193 195 196 197 197 197 197 197 196 189 194 203 204 205 206 208 214 217 216 217 221 220 216 218 225 223 221 224 227 230 233 239 249 259 261 249 244 242 242 249 266 276 264 253 244 234 223 217 212 208 210 220 221 223 234 236 222 206 196 188 193 198 199 199 198 196 196 203 209 214 215 221 225 226 232 240 249 259 265 264 272 278 278 275 275 280 287 289 283 276 277 288 297 298 290 282 269 258 255 264 267 268 255 240 248 263 262 267 271 271 265 251 236 246 258 253 244 240 236 232 230 228 228 227 227 228 228 227 227 227 213 206 220 235 241 249 262 272 270 271 276 278 270 256 242 232 232 246 262 257 249 240 229 224 228 241 255 263 245 229 225 230 239 245 243 240 249 260 267 264 253 250 254 255 250 240 231 226 225 226 226 225 226 226 226 225 224 222 226 226 226 227 228 228 229 229 230 231 232 235 237 241 244 246 247 247 247 249 250 256 258 257 255 256 251 255 251 252 258 261 258 252 256 257 253 249 246 244 251 261 264 263 263 264 263 260 261 264 257 249 249 254 253 250 251 251 251 251 250 251 252 253 255 255 257 258 260 262 263 263 262 261 261 261 261 263 266 268 269 269 263 261 263 262 261
43 44 44 44 44 44 44 44 44 44 44 44 45 45 45 45 45 45 45 45 45 45 45 45 45 45 45 45 45 45 46 46 46 46 46 46 46 47 47 47 48 48 49 50 51 53 55 60 65 64 66 71 80 92 95 90 89 90 90 94 103 106 97 90 92 100 108 121 128 121 111 108 107 107 107 107 109 121 134 137 137 137 132 128 129 127 126 125 126 128 130 133 137 140 141 144 144 142 142 150 156 157 158 157 146 139 139 138 134 122 120 128 141 146 148 149 147 142 141 141 141 148 157 160 161 161 159 159 160 160 152 146 145 145 145 144 149 157 160 159 156 151 147 146 146 146 147 147 148 148 147 147 147 148 147 147 146 145 144 144 144 145 146 147 147 145 145 146 146 147 147 147 147 147 146 145 144 144 143 143 143 143 144 144 144 145 145 146 146 146 146 147 147 146 146 146 147 147 147 147 147 147 146 145 140 140 145 147 148 148 149 150 150 151 152 152 153 153 154 154 155 155 155 156 156 155 154 155 149 154 156 158 158 159 159 159 159 159 159 160 160 160 160 161 162 163 164 165 166 166 167 168 169 170 170 171 171 172 172 173 173 172 170 173 175 176 176 177 177 177 177 177 177 176 176 175 174 174 173 173 172 172 172 172 171 171 172 172 173 174 175 176 176 177 176 177 178 179 184 187 190 191 192 192 191 187 182 188 192 195 194 194 195 199 202 202 201 200 202 204 206 208 209 207 203 187 177 186 190 189 189 196 213 215 210 207 215 227 219 202 190 187 185 184 185 195 206 212 215 211 209 212 214 218 225 225 220 222 226 223 226 234 240 244 253 265 273 278 279 277 270 256 241 230 219 213 209 206 200 198 195 194 193 195 200 205 209 209 203 202 196 194 194 196 199 203 195 190 192 194 195 196 196 197 197 196 190 189 200 204 204 205 207 211 221 225 225 226 228 231 229 228 230 227 227 227 229 233 237 245 256 259 249 240 239 239 241 246 259 274 270 262 251 238 229 223 217 209 206 210 210 214 224 231 221 202 188 185 195 199 199 198 195 194 196 202 211 218 225 229 234 235 238 245 254 264 273 272 272 284 286 284 283 288 295 299 294 288 285 293 303 304 297 287 276 262 251 250 252 255 245 236 245 252 251 260 265 265 263 251 232 245 256 251 244 238 233 231 228 227 226 226 226 227 227 227 227 223 210 206 225 244 252 262 270 268 266 271 276 277 270 255 242 231 229 242 258 251 239 232 223 225 236 250 261 252 234 224 226 237 250 256 255 245 245 255 265 265 257 260 265 258 244 234 230 229 226 225 226 224 226 226 225 224 223 222 222 223 224 224 225 226 228 229 230 231 233 238 244 245 247 249 250 249 250 253 258 257 258 255 251 251 249 253 249 248 256 259 256 248 252 253 249 246 244 243 253 261 262 261 262 263 262 257 255 261 263 256 250 250 251 250 250 251 251 251 248 250 251 252 253 255 256 258 259 261 262 262 262 260 260 260 260 262 264 265 266 265 261 259 260 261 261
43 44 44 44 44 44 44 44 44 44 44 44 44 45 45 45 45 45 45 45 45 45 45 45 45 45 45 45 45 45 45 45 46 46 46 46 46 46 47 47 48 48 49 49 50 52 54 57 60 59 63 69 79 91 90 88 88 89 91 99 107 103 92 88 92 99 110 123 123 114 109 107 106 106 106 107 111 124 133 135 135 135 129 125 124 124 123 124 126 127 128 132 136 135 137 139 139 137 141 149 153 153 154 153 144 136 133 131 128 116 127 135 142 143 144 143 141 139 138 139 140 147 154 156 157 157 155 155 156 156 149 145 144 144 143 144 151 156 156 156 153 149 146 145 145 145 145 146 146 146 146 146 145 146 145 145 144 143 141 141 141 143 144 144 143 142 143 144 143 144 145 145 145 145 144 143 142 142 141 141 141 142 142 143 143 144 144 145 145 145 146 146 146 146 146 146 146 146 146 146 146 146 145 143 137 141 144 146 147 148 149 149 150 151 151 152 153 153 153 154 154 155 155 155 155 155 154 153 148 154 155 156 157 158 158 158 158 159 159 159 159 159 159 160 161 162 163 164 165 166 167 167 168 169 169 170 170 171 171 172 172 171 168 172 173 174 175 175 175 175 175 175 175 175 174 174 173 172 172 172 171 171 171 171 171 170 171 171 172 173 173 174 174 175 175 175 176 178 181 185 186 187 188 187 185 182 183 189 189 192 193 194 196 198 200 199 199 201 203 204 206 206 200 198 192 174 181 187 188 188 191 203 212 210 204 208 218 226 213 198 189 187 184 183 190 200 211 215 212 210 208 205 208 212 216 215 213 215 215 218 225 229 232 236 245 261 274 281 283 281 270 258 247 233 225 221 218 212 206 202 198 195 193 193 195 200 209 213 209 208 199 194 194 195 195 194 192 190 192 193 194 195 195 196 196 192 185 196 203 202 206 207 206 213 225 232 233 233 236 239 236 230 232 233 231 232 234 238 246 254 258 247 238 235 235 237 239 249 264 277 276 266 256 247 240 232 223 215 205 202 203 205 212 220 216 193 181 185 197 199 198 193 194 200 202 205 211 217 227 234 241 244 247 252 261 271 281 284 281 287 289 290 291 297 302 307 303 296 292 300 307 306 303 294 281 269 253 243 237 237 232 230 239 240 243 249 252 253 255 243 228 241 254 249 243 237 231 229 226 226 225 225 226 226 226 227 228 218 205 216 238 257 265 267 262 256 263 272 276 273 268 256 242 228 226 241 256 245 231 223 222 227 241 257 257 240 224 223 231 245 259 265 260 245 253 256 263 269 267 269 270 259 244 236 234 240 234 225 225 224 225 227 224 222 221 221 222 225 226 228 228 230 231 231 233 236 238 242 250 253 254 257 257 257 257 258 259 260 258 254 250 248 247 247 245 245 252 256 254 244 248 248 245 244 242 244 253 259 260 259 259 260 259 255 250 256 258 257 251 248 248 249 249 250 250 248 246 248 250 251 252 254 256 257 259 260 261 261 260 258 257 258 259 260 262 262 262 261 258 256 257 258 260
43 44 44 44 44 44 44 44 44 44 44 44 44 45 45 45 45 45 45 45 45 45 45 45 45 45 45 45 45 45 45 45 45 46 46 46 46 46 46 47 47 48 48 49 50 51 52 54 56 55 59 68 82 90 88 86 87 88 91 102 107 99 90 88 92 101 114 124 119 110 106 105 105 104 105 107 114 127 132 132 133 132 128 122 121 121 122 123 125 126 128 132 134 133 134 136 134 134 141 147 148 149 149 149 143 136 129 125 121 116 129 136 140 140 140 139 138 137 136 136 139 145 150 152 153 153 151 151 152 152 147 144 142 142 142 142 148 151 152 152 150 147 145 144 144 144 144 144 145 145 145 145 144 144 144 143 142 140 140 139 140 141 142 142 140 141 142 142 141 142 143 143 142 142 141 141 141 140 140 140 140 141 141 142 143 143 144 144 144 145 145 145 145 145 145 145 145 145 145 145 145 145 144 142 138 141 143 145 147 147 148 149 149 150 151 151 152 152 153 153 154 154 154 154 154 154 155 151 150 154 154 156 156 157 157 158 158 158 158 158 158 159 159 160 161 162 163 164 164 165 166 167 167 168 168 169 169 170 170 170 170 166 168 172 172 172 173 173 173 173 173 173 173 173 173 172 171 171 171 171 170 170 170 170 170 170 170 171 171 171 172 172 172 173 173 173 175 177 177 178 178 180 180 178 183 184 185 187 190 191 192 194 196 197 197 195 197 200 202 203 203 201 196 193 184 170 184 186 187 191 204 211 210 206 202 209 216 220 208 196 188 186 183 185 193 203 213 212 205 203 200 199 204 207 209 209 209 211 212 215 219 222 228 236 248 260 266 276 281 262 248 252 253 244 234 230 226 219 215 211 206 200 193 191 192 198 210 218 212 211 204 195 193 192 190 190 191 191 192 192 193 193 194 194 192 185 188 201 197 202 209 212 212 212 224 236 240 241 243 245 242 234 234 237 236 239 242 245 255 259 250 236 231 231 231 236 244 256 261 270 281 271 263 256 248 237 226 216 206 200 198 196 198 205 212 197 184 187 198 193 186 194 201 207 209 210 214 216 222 233 244 250 255 262 272 281 289 292 290 289 286 291 294 296 303 306 305 297 294 300 300 299 300 296 288 277 263 252 243 234 228 223 225 227 235 238 237 233 237 227 225 244 254 249 243 238 232 227 225 225 224 225 226 226 225 226 228 218 202 218 247 266 264 256 247 254 268 274 274 266 260 253 236 225 227 242 252 242 227 219 223 233 249 259 249 231 221 225 236 253 267 266 257 250 261 263 267 274 275 276 276 266 254 241 242 253 241 230 224 223 221 223 222 221 220 221 229 231 232 235 235 236 237 235 236 241 245 249 257 261 262 264 264 263 263 263 263 262 259 256 257 253 246 243 242 241 248 253 250 243 244 244 242 241 243 248 256 259 258 257 254 255 258 255 250 251 252 250 248 246 246 247 247 248 247 245 245 247 249 250 251 252 255 257 258 259 259 260 259 257 256 256 257 258 259 260 260 258 256 256 256 257 259
43 44 44 44 44 44 44 44 44 44 44 44 44 44 45 45 45 45 45 45 45 45 45 45 45 45 45 45 45 45 45 45 45 45 46 46 46 46 46 47 47 47 48 48 49 50 51 52 52 53 57 69 83 87 85 84 86 89 93 104 106 97 89 88 92 100 115 122 116 106 103 104 104 103 103 109 121 129 130 130 130 130 127 121 120 120 121 122 123 126 129 134 131 129 131 132 129 133 141 144 145 145 145 145 141 135 129 122 115 119 133 136 138 138 138 137 136 134 133 134 138 143 147 149 149 149 149 149 149 149 146 142 140 140 140 140 144 146 148 148 147 145 144 143 143 143 143 143 143 143 143 143 143 142 142 141 140 139 139 138 139 139 140 139 139 140 141 141 140 140 141 141 141 140 140 140 140 140 140 140 140 140 141 142 142 143 143 143 144 144 144 144 144 144 144 144 145 145 145 145 144 144 143 142 139 138 143 145 146 147 148 148 149 150 150 151 151 152 152 153 153 154 154 154 154 154 154 151 151 153 154 155 155 156 156 157 157 157 157 157 158 158 158 159 160 161 162 163 164 164 165 166 166 167 168 168 169 169 169 168 166 164 168 170 171 171 171 172 172 172 172 172 172 172 171 171 170 170 170 170 170 170 170 170 170 170 170 170 170 170 171 171 171 172 172 174 177 177 178 178 177 177 178 183 184 185 186 187 188 190 190 192 195 196 196 193 196 199 201 201 199 196 193 191 178 172 185 186 188 195 210 211 207 201 203 209 208 205 200 193 187 185 181 188 197 208 215 207 197 196 194 195 200 203 204 204 206 208 211 213 217 222 230 240 246 251 254 263 262 246 235 234 242 250 245 238 232 227 222 213 205 198 191 189 190 196 205 214 210 204 197 193 192 190 187 188 190 191 191 191 192 191 191 191 187 182 190 191 193 202 210 221 224 220 222 238 246 248 250 250 246 239 239 240 241 246 250 253 258 260 247 233 229 229 231 239 245 243 248 261 278 279 270 262 252 239 227 217 209 203 198 195 193 194 199 191 179 188 193 181 189 198 205 212 216 218 220 224 226 232 245 255 263 272 282 290 296 298 295 289 277 282 284 286 294 302 300 294 289 293 289 290 294 293 291 283 271 259 245 236 230 225 218 220 227 225 220 216 221 224 237 254 256 250 243 237 231 227 225 224 224 224 226 225 221 224 221 211 202 224 252 264 252 240 248 262 272 274 272 261 248 243 232 223 229 245 252 238 223 219 226 240 253 247 236 224 222 230 244 262 270 265 257 260 268 272 273 277 280 282 282 274 258 250 254 261 249 234 224 221 220 221 221 221 220 220 233 239 243 243 240 242 243 240 240 245 254 258 263 265 264 263 263 264 265 265 264 264 262 262 262 258 252 246 242 240 242 249 248 241 240 240 240 241 247 254 258 256 254 251 248 252 257 256 250 247 246 245 244 244 245 245 246 245 245 244 245 246 248 249 249 250 254 257 258 258 258 258 258 256 255 255 255 257 257 258 257 257 256 256 256 256 257
43 44 44 44 44 44 44 44 44 44 44 44 44 44 44 44 45 45 45 45 45 44 44 44 44 45 45 45 45 45 45 45 45 45 45 46 46 46 46 46 47 47 47 48 48 49 49 50 49 51 56 65 78 86 85 84 87 96 103 109 104 94 88 88 92 101 114 120 114 104 102 102 102 102 103 112 125 129 128 127 128 129 125 120 119 120 121 121 123 127 130 133 128 126 129 128 126 133 139 141 141 141 142 141 139 135 128 119 115 126 134 136 136 136 135 135 134 132 131 133 137 140 143 145 145 146 146 146 146 146 143 140 139 139 139 139 140 142 143 144 144 143 142 141 141 141 141 141 141 141 141 141 141 141 140 140 139 138 137 137 137 137 137 137 137 139 139 139 139 139 140 140 140 140 139 139 139 139 139 139 140 140 140 141 142 142 142 143 143 143 143 143 144 144 144 144 144 144 144 144 144 143 142 142 136 140 143 144 146 147 148 148 149 149 150 150 151 151 152 152 153 153 153 154 153 153 154 148 151 154 154 155 155 155 156 156 156 156 157 157 157 157 158 159 159 160 161 162 163 164 164 165 166 166 167 167 168 168 168 167 164 165 167 169 170 170 170 170 170 170 170 170 170 170 170 170 170 170 169 169 169 169 169 169 169 169 169 169 170 170 170 171 171 172 173 175 177 177 177 177 178 179 180 182 184 185 185 186 187 188 188 189 192 195 195 189 194 197 198 197 194 193 191 185 174 180 186 187 189 208 211 208 202 198 206 208 197 191 190 189 187 185 177 190 200 209 205 198 191 191 192 194 196 198 200 201 205 208 211 214 221 226 232 234 237 240 245 252 258 241 230 222 231 248 248 244 241 232 220 208 199 193 189 187 188 192 200 209 205 193 191 192 190 188 187 188 189 190 191 191 191 190 190 185 180 184 190 200 202 202 208 219 229 230 223 235 248 255 255 256 252 243 242 243 246 252 256 260 265 263 250 235 226 227 231 233 232 235 241 256 274 280 272 264 255 241 229 219 210 204 198 194 193 192 188 179 181 188 182 184 193 196 206 214 219 224 226 228 231 235 246 258 270 281 289 294 300 301 298 287 272 268 270 281 292 298 296 288 278 282 276 281 287 286 285 282 273 260 244 237 232 226 219 214 219 213 213 221 227 237 248 258 257 249 243 237 232 226 225 224 223 224 226 223 213 209 203 201 213 236 259 257 242 240 258 269 270 269 268 258 242 230 222 223 235 252 250 233 220 218 225 243 252 235 225 221 223 236 252 269 270 268 268 268 273 278 280 281 286 284 279 273 265 256 256 258 252 239 227 220 220 220 220 220 220 218 234 245 255 253 248 248 250 246 247 253 262 260 257 261 260 258 259 263 266 266 266 265 265 265 264 262 258 253 245 241 240 244 246 240 238 239 240 244 251 255 256 251 248 246 245 249 252 251 250 245 243 243 243 243 243 244 244 244 243 243 245 246 247 248 249 250 256 258 258 257 258 257 257 257 254 253 253 254 255 256 255 255 255 256 256 256 257
43 44 44 44 44 44 44 44 44 44 44 44 45 45 45 45 45 45 45 45 45 44 44 44 44 44 44 45 45 45 45 45 45 45 45 45 45 46 46 46 46 46 47 47 48 48 48 49 49 49 57 66 80 86 84 84 88 103 115 111 101 92 86 87 93 105 117 118 110 103 101 101 101 101 104 117 125 127 126 126 126 126 123 119 118 119 121 121 125 129 130 131 126 123 126 123 122 132 136 136 137 137 138 138 136 133 126 118 115 129 134 135 134 134 133 132 131 129 128 131 135 139 141 142 142 143 143 143 143 143 141 139 138 138 137 137 138 139 139 141 141 140 140 139 139 139 139 139 139 139 139 140 139 139 138 137 136 136 136 136 136 136 135 135 136 137 138 138 138 138 139 139 139 139 139 139 139 139 139 139 139 140 140 141 142 142 142 142 142 142 143 143 143 143 143 143 143 143 143 143 143 142 142 142 134 142 143 144 145 146 147 148 148 149 149 150 150 151 151 152 152 152 153 153 153 153 147 150 154 154 154 154 155 155 155 155 155 156 156 156 156 157 157 158 159 160 161 161 162 163 164 164 165 165 166 166 167 167 167 167 163 166 167 168 168 169 169 169 169 169 169 169 169 169 169 169 169 169 169 169 168 168 168 169 169 169 169 169 169 170 171 171 172 172 173 175 176 176 177 177 177 178 179 181 183 183 184 185 186 187 188 189 192 196 194 189 190 195 196 195 193 191 187 175 178 185 186 188 194 210 211 205 199 197 208 208 193 187 187 187 185 183 178 189 200 202 196 190 188 189 191 193 194 196 200 203 207 210 212 218 223 224 226 229 233 239 244 254 263 247 231 219 221 235 239 235 240 232 218 207 200 195 190 187 186 188 196 204 201 191 190 191 190 188 187 187 189 190 190 191 189 186 179 180 187 196 204 209 209 206 206 213 226 236 231 234 250 260 262 263 257 247 246 247 251 258 264 268 272 268 254 237 226 224 226 226 226 230 240 256 273 274 268 261 253 240 227 218 208 204 201 195 193 191 183 176 186 181 181 190 193 195 200 206 214 225 232 234 235 238 247 260 272 284 292 296 298 301 297 287 274 259 260 273 284 290 287 284 273 267 264 273 281 280 276 273 269 256 244 238 234 228 220 209 211 213 221 229 236 244 252 259 256 248 244 240 234 227 224 223 223 223 223 219 201 201 207 219 232 250 261 250 237 247 263 269 266 256 255 253 237 223 218 226 242 253 244 228 218 217 227 245 248 230 220 219 227 242 260 271 271 272 275 275 278 282 285 287 289 283 265 257 256 249 242 245 254 247 233 221 219 220 219 219 219 220 233 247 262 265 260 257 254 254 257 261 265 260 250 254 253 249 254 262 267 268 267 267 266 266 265 265 261 257 251 244 241 240 242 239 237 239 242 246 251 254 253 248 244 243 243 245 248 247 245 243 242 242 241 242 242 242 242 242 241 244 245 246 247 248 249 252 257 258 257 257 257 257 257 256 254 251 250 251 252 253 253 253 253 254 254 255 256
43 43 44 44 44 44 44 44 44 44 44 44 44 44 44 44 45 45 45 45 44 44 44 44 44 44 44 44 45 45 45 45 45 45 45 45 45 46 46 46 46 46 46 47 47 48 48 48 48 50 60 75 85 84 82 83 88 102 113 107 97 89 83 85 92 106 118 116 108 102 101 100 100 101 105 119 124 124 123 123 124 124 122 118 117 119 120 122 127 129 130 130 125 120 121 119 123 131 132 132 132 133 134 134 132 129 123 116 115 128 132 132 131 130 130 129 128 127 127 129 134 136 137 138 139 139 140 140 140 140 140 139 137 136 136 136 137 137 138 138 138 138 137 137 137 137 137 137 137 137 137 137 136 136 135 135 134 134 134 135 135 135 134 134 135 136 136 137 137 137 138 138 138 138 138 138 138 138 138 139 139 139 140 141 141 141 141 141 141 142 142 142 142 142 143 143 143 143 143 143 143 142 142 141 134 142 143 144 145 146 147 147 148 148 149 149 150 150 151 151 151 152 152 152 151 147 148 152 153 153 154 154 154 154 154 155 155 155 155 155 156 156 157 158 158 159 160 161 161 162 163 163 164 164 165 165 166 166 167 166 164 166 167 167 168 168 168 168 168 169 169 169 169 169 169 168 168 168 168 168 168 168 168 168 168 168 168 169 169 170 171 171 172 172 173 174 175 176 176 176 176 177 178 180 182 182 183 184 186 187 188 189 194 196 194 189 188 192 194 192 190 189 176 176 184 186 188 192 202 211 210 203 196 196 209 212 196 188 185 185 184 183 178 186 198 197 189 187 187 188 191 194 197 199 203 207 212 215 215 217 219 220 226 235 242 250 258 269 274 257 240 221 213 221 226 219 229 226 219 212 205 200 193 188 186 186 191 198 193 188 190 190 189 187 186 187 188 189 190 187 180 176 183 189 196 200 206 212 215 213 207 212 223 236 241 238 252 264 268 269 263 252 249 251 255 264 272 276 278 271 255 238 226 221 221 222 223 228 242 258 273 270 264 256 248 238 224 217 210 208 203 196 193 190 179 176 180 182 190 192 194 200 208 213 217 226 235 240 240 242 248 256 269 283 290 293 295 298 294 284 273 256 251 263 279 281 271 280 277 263 255 266 275 271 266 262 261 255 246 239 235 229 219 206 211 222 227 232 239 248 256 256 249 243 239 238 234 227 223 222 222 222 221 217 200 208 220 230 242 255 256 244 231 243 258 265 262 248 240 243 230 217 219 232 249 256 241 226 215 217 232 246 241 221 216 221 232 250 266 271 272 273 275 280 281 284 286 288 288 280 264 249 243 241 232 235 246 248 237 222 218 218 217 217 217 221 233 249 263 269 271 266 260 263 266 267 264 258 248 246 243 249 258 264 268 269 269 268 267 266 265 264 262 259 256 252 246 240 238 237 238 241 245 248 250 251 250 245 241 240 241 244 245 242 240 239 240 240 240 240 241 241 240 240 240 243 245 245 246 248 250 256 258 257 257 256 256 256 256 255 253 251 250 250 250 250 250 251 251 252 253 253 254
43 44 44 44 44 44 44 44 44 44 44 44 44 44 44 44 44 44 44 44 44 44 44 44 44 44 44 44 44 44 44 45 45 45 45 45 45 45 45 46 46 46 46 47 47 47 48 48 48 52 64 79 85 82 81 82 89 102 112 105 95 87 82 83 92 108 119 115 107 101 100 99 99 101 109 120 122 121 121 121 122 123 120 116 117 117 119 122 126 127 127 127 124 117 115 116 124 129 128 127 127 128 130 129 128 125 120 116 119 129 130 129 128 127 126 126 124 124 125 127 130 132 133 134 135 136 136 136 137 137 137 136 136 135 134 135 136 135 135 135 135 135 135 135 135 135 135 135 135 135 135 134 134 134 134 133 133 133 133 133 133 133 133 133 134 135 135 136 136 136 137 137 137 137 137 138 138 138 138 138 139 139 140 140 140 140 140 141 141 141 141 141 141 142 142 142 142 142 142 143 142 142 141 140 137 141 142 144 145 146 146 147 148 148 148 149 149 150 150 150 150 150 150 148 146 147 149 151 152 153 153 153 153 154 154 154 154 154 155 155 155 156 156 157 158 159 159 160 161 161 162 163 163 164 164 165 165 165 166 166 164 166 166 167 167 167 167 168 168 168 168 168 168 168 168 167 167 167 167 167 167 167 167 167 167 167 168 168 169 169 170 171 172 172 173 174 174 175 175 176 176 177 177 179 181 182 183 184 185 187 188 191 196 197 194 189 186 189 191 189 187 181 170 183 186 188 195 203 210 209 206 200 193 196 209 217 206 189 183 183 183 180 177 184 195 192 186 185 186 188 192 197 200 203 208 216 221 217 214 215 219 227 237 246 256 264 270 276 278 265 248 228 216 213 216 212 220 219 213 215 212 206 195 189 187 186 187 190 188 189 189 189 188 186 186 185 186 186 185 178 180 190 195 198 198 201 205 214 220 220 216 214 222 235 246 244 251 264 272 276 267 256 253 256 260 269 278 282 280 270 257 244 231 221 218 220 220 229 242 257 265 262 259 252 242 231 222 217 212 207 200 195 192 186 174 176 182 190 191 193 195 203 213 220 225 232 239 245 245 244 250 257 269 280 287 290 290 288 289 277 265 254 247 262 272 265 261 278 279 264 250 256 267 262 256 253 249 246 241 237 233 227 212 204 218 227 231 235 242 250 257 251 242 236 231 231 228 224 222 220 220 221 221 204 196 212 228 237 249 259 253 238 226 233 246 260 260 244 232 228 220 215 226 241 257 255 238 223 213 218 234 241 230 214 217 226 241 258 270 271 270 273 278 282 283 284 285 286 286 278 263 248 236 236 230 227 234 245 241 229 218 216 216 216 217 223 237 249 250 263 274 273 271 273 272 268 261 253 245 239 244 255 263 265 268 270 270 268 265 264 262 258 256 256 260 257 251 242 237 235 239 243 246 247 247 247 246 243 239 238 240 242 241 238 237 238 239 239 239 239 240 240 239 239 238 241 243 244 244 246 255 258 258 256 255 255 254 254 254 254 253 251 250 249 249 249 249 250 250 250 251 252 252
43 43 44 44 44 44 44 44 44 44 44 44 44 44 44 44 44 44 44 44 44 44 44 44 44 44 44 44 44 44 44 44 44 45 45 45 45 45 45 45 46 46 46 46 47 47 47 48 48 55 69 83 84 80 79 82 90 103 113 106 96 86 81 83 93 110 117 114 106 99 98 98 97 102 114 119 119 119 118 119 120 120 118 115 115 116 118 122 124 124 124 124 121 114 110 113 122 125 124 123 123 123 125 125 125 122 118 115 121 127 126 125 124 123 122 122 121 122 122 124 126 127 128 129 130 132 132 132 133 134 135 135 135 135 134 135 134 134 133 133 133 133 133 133 133 133 133 133 133 133 133 133 132 132 132 132 132 131 131 132 132 132 132 132 133 133 134 135 135 135 136 136 136 136 137 137 137 137 138 138 138 139 139 139 139 140 140 140 140 140 141 140 141 141 141 141 142 142 142 142 142 141 141 137 136 141 142 143 144 145 146 147 147 147 148 148 149 149 149 149 149 149 149 145 146 148 149 151 152 152 152 153 153 153 153 153 154 154 154 154 154 155 156 157 157 158 159 159 160 161 161 162 162 163 163 164 164 165 165 165 161 166 166 166 166 166 167 167 167 167 167 167 167 167 167 167 167 166 166 166 166 166 166 166 167 167 167 168 168 169 170 171 171 172 173 173 174 174 175 176 176 177 177 179 180 181 182 183 185 186 188 190 195 197 195 188 184 186 188 187 184 172 176 185 187 191 202 211 210 206 200 194 188 196 209 219 211 197 185 182 181 179 177 181 191 186 183 186 188 191 196 202 205 208 215 223 219 212 212 216 225 236 247 258 265 269 271 272 273 269 249 234 221 212 208 208 211 210 203 206 208 204 195 190 188 186 184 184 187 188 189 188 186 185 185 184 184 181 175 181 191 195 202 205 203 204 205 213 222 228 223 220 226 237 246 252 255 262 271 278 269 259 258 258 264 271 282 289 281 270 259 247 232 221 216 217 218 227 237 246 253 251 250 251 240 230 223 218 214 208 202 195 192 181 174 185 187 191 192 193 195 201 210 221 231 239 245 249 249 247 250 256 267 277 285 286 280 276 279 272 259 250 241 252 255 251 265 279 274 262 249 244 256 254 248 245 240 237 236 233 230 223 203 207 224 232 236 240 246 253 257 249 239 232 226 223 221 219 220 219 220 221 211 194 207 221 232 242 255 263 255 240 226 229 241 257 260 248 234 222 215 218 232 246 259 249 232 218 211 218 234 230 216 215 221 234 251 266 272 267 265 271 278 281 280 280 281 284 284 278 267 252 239 231 229 226 227 238 239 227 219 216 215 216 219 224 231 237 244 257 266 277 280 277 274 267 259 252 243 237 245 260 264 260 263 269 267 263 260 257 255 249 248 256 262 259 252 242 236 234 238 242 244 244 244 243 242 240 237 237 239 239 238 236 236 236 237 238 238 238 239 239 239 238 238 240 242 242 243 250 257 257 257 255 254 253 252 252 253 253 252 252 250 249 249 248 248 248 248 249 250 250 250
43 44 44 44 44 44 44 44 44 44 44 44 44 44 44 44 44 44 44 44 44 44 44 44 44 44 44 44 44 44 44 44 44 44 45 45 45 45 45 45 45 46 46 46 46 46 47 48 50 62 78 87 82 79 78 80 91 105 112 108 97 85 82 82 91 107 114 113 106 96 96 96 96 107 116 118 117 116 116 116 117 118 117 114 114 115 116 121 122 121 121 120 118 112 108 111 118 121 120 119 119 119 121 122 121 119 117 115 121 123 122 121 120 119 119 119 119 120 120 121 122 123 124 124 125 128 128 129 130 131 131 131 132 133 131 131 132 132 132 131 131 131 131 131 131 131 131 131 131 131 131 131 131 131 130 130 130 130 130 130 131 131 131 131 131 132 133 134 134 135 135 135 135 136 136 136 137 137 137 137 138 138 138 139 139 139 139 139 140 140 140 140 140 140 141 141 141 141 141 142 142 141 140 135 136 142 142 143 144 145 145 146 147 147 147 148 148 148 148 149 148 148 147 144 148 148 149 150 151 151 152 152 152 152 152 153 153 153 153 154 154 155 155 156 157 157 158 159 160 160 161 161 162 162 163 163 163 164 164 163 161 164 165 165 165 166 166 166 166 166 166 166 166 166 166 166 166 166 166 165 165 165 165 166 166 166 167 167 168 169 169 170 171 172 172 173 173 174 175 176 177 178 178 179 180 181 182 183 184 186 188 189 194 196 194 188 179 183 185 184 175 175 184 186 188 193 207 212 210 205 197 190 186 195 208 217 212 197 185 182 181 179 177 180 184 182 183 187 191 197 202 207 210 213 221 217 208 207 212 219 232 245 256 260 262 263 266 268 268 268 257 243 230 218 212 208 204 202 200 201 201 198 194 191 188 185 183 184 186 188 189 187 184 184 185 183 180 175 180 192 195 195 203 209 209 210 211 214 223 234 234 227 231 241 248 257 262 265 271 278 274 265 264 264 266 272 282 290 284 271 260 248 232 219 215 214 216 221 227 234 241 241 245 252 244 235 228 222 217 211 201 193 188 175 180 191 191 191 193 194 195 202 213 223 233 243 249 253 254 252 253 260 269 275 279 276 269 267 267 264 254 244 237 239 242 255 273 274 268 257 246 235 241 246 241 238 235 232 230 229 225 217 200 212 228 236 240 243 251 258 257 248 238 230 222 219 218 218 218 218 219 220 204 193 209 227 237 246 261 265 255 240 224 227 242 257 259 247 233 219 211 218 233 246 254 243 227 213 210 216 226 215 211 217 228 244 258 268 265 257 261 271 277 278 273 271 278 282 283 279 272 261 244 232 228 226 222 230 232 223 219 216 214 216 220 224 228 232 239 250 261 274 277 275 275 270 265 255 243 236 245 259 258 252 257 262 261 256 257 252 245 242 247 260 263 255 247 239 234 235 240 242 242 243 242 241 239 238 237 237 238 238 236 234 233 234 235 236 237 238 238 239 238 236 238 240 242 243 245 252 256 255 254 252 251 250 250 251 251 251 251 251 250 249 248 248 247 247 247 248 248 249 249
43 43 44 44 44 44 44 44 44 44 44 44 44 44 44 44 44 44 44 44 44 43 43 43 43 43 43 43 44 44 44 44 44 44 44 44 45 45 45 45 45 45 46 46 46 46 46 48 58 71 84 85 80 78 77 80 94 106 111 107 99 89 83 81 88 103 113 111 103 95 94 95 97 107 115 116 115 115 115 115 116 117 116 114 114 115 116 118 119 119 118 118 115 110 106 109 114 116 116 116 116 116 117 118 118 116 115 115 118 120 119 117 116 116 116 116 117 118 119 119 120 121 121 121 122 123 124 125 126 127 126 127 128 129 128 129 130 130 130 129 129 129 129 129 129 129 129 129 129 129 129 129 129 129 129 129 129 129 129 129 130 130 130 130 130 130 131 132 133 134 134 135 135 135 136 136 136 136 137 137 137 137 138 138 138 138 139 139 139 139 139 139 140 140 140 140 140 140 141 141 141 141 140 135 135 141 142 143 144 144 145 145 146 146 147 147 147 148 148 148 148 148 144 147 148 148 149 149 150 151 151 151 152 152 152 152 152 153 153 153 153 154 155 155 156 157 158 158 159 160 160 161 161 161 162 162 162 162 161 160 160 162 163 164 164 165 165 165 165 165 165 165 165 165 165 165 165 165 165 165 165 165 165 165 166 166 166 167 168 168 169 170 171 171 172 173 173 174 175 176 177 178 178 179 180 181 181 182 184 185 188 191 196 196 192 186 177 182 183 176 171 179 181 184 191 200 211 210 208 206 198 190 185 194 207 215 212 200 189 182 181 179 177 178 179 180 183 187 193 199 204 209 213 221 220 207 205 209 214 224 240 251 253 254 254 255 258 261 265 267 265 255 241 227 220 213 206 200 200 199 197 195 193 190 188 185 182 183 185 188 188 185 183 184 183 178 172 178 188 198 203 201 204 211 215 215 218 219 226 236 242 236 236 245 254 263 268 269 274 280 280 272 269 269 270 275 283 292 288 275 262 247 233 220 215 212 211 214 219 226 228 231 244 253 246 236 228 223 216 206 196 189 182 174 186 191 192 193 194 195 198 205 213 224 233 243 251 257 261 260 260 268 270 269 268 265 262 260 259 256 249 237 231 232 248 266 273 268 262 253 244 233 229 239 236 233 230 227 224 223 219 211 201 212 227 235 241 249 257 262 257 248 238 229 220 218 217 217 217 217 217 216 208 193 199 218 235 249 260 259 250 235 220 223 240 255 250 237 226 216 210 217 229 244 251 240 224 211 208 213 213 209 215 226 238 253 264 264 253 249 262 271 274 272 260 266 276 278 279 276 266 256 243 231 228 225 220 221 226 222 218 215 214 216 220 224 231 238 245 252 265 271 270 270 274 271 262 253 241 236 244 253 248 245 253 254 257 250 251 250 241 239 249 259 259 250 241 234 232 238 245 245 243 242 240 239 238 237 236 235 236 236 235 233 232 232 234 235 236 237 237 237 236 236 239 240 242 244 249 252 253 252 251 250 249 249 249 249 250 250 250 250 250 249 247 247 246 246 246 247 247 248 248
43 44 44 44 44 44 44 44 44 44 44 44 44 44 44 44 44 44 43 43 43 43 43 43 43 43 43 43 43 43 44 44 44 44 44 44 44 45 45 45 45 45 45 46 46 46 46 47 55 71 83 83 79 77 75 81 97 108 108 105 99 90 83 82 89 102 110 108 96 93 94 96 100 110 113 114 113 113 113 114 114 116 115 113 113 114 116 117 117 117 116 114 111 107 103 105 111 113 114 113 112 113 113 115 116 113 111 114 117 117 116 115 114 114 114 115 115 116 117 117 118 118 119 119 120 120 121 122 123 122 122 124 125 125 125 127 128 128 128 127 127 127 127 127 127 127 128 128 128 128 128 128 128 128 128 128 128 128 128 128 129 129 129 129 129 129 130 131 132 133 133 134 134 135 135 135 136 136 136 136 136 137 137 137 137 138 138 138 138 139 139 139 139 139 140 140 140 140 140 141 141 141 140 135 136 141 142 143 143 144 144 145 145 146 146 146 147 147 147 147 148 145 145 148 148 149 149 149 149 150 150 151 151 151 151 151 152 152 152 152 153 153 154 155 155 156 157 158 158 159 159 160 160 161 161 161 161 161 160 160 159 160 162 163 164 164 164 164 164 164 164 164 165 165 164 164 164 164 164 164 164 164 164 165 165 166 166 167 167 168 168 169 170 171 172 172 173 174 175 175 176 177 178 179 179 180 181 182 183 185 188 191 194 193 189 185 177 178 176 171 171 177 182 192 201 209 211 209 204 203 198 188 184 194 206 214 213 205 195 184 181 180 178 176 177 180 182 188 194 199 205 211 219 216 206 200 203 210 218 232 243 245 245 244 244 248 254 259 261 261 259 255 245 232 224 215 208 203 200 198 196 194 192 189 186 183 182 182 185 188 187 183 175 170 174 171 177 186 193 203 209 208 209 214 220 222 224 228 231 240 248 245 245 251 257 266 273 274 277 282 281 276 275 277 277 280 287 294 289 278 264 248 234 224 216 212 209 209 212 214 217 229 244 247 238 229 221 215 207 198 191 185 177 179 190 191 192 193 195 198 203 209 215 226 234 244 253 262 270 272 270 269 266 263 260 258 257 256 252 248 242 230 224 237 256 269 269 263 257 252 245 236 227 231 231 228 228 222 218 215 213 207 200 211 221 232 241 254 263 267 259 247 239 229 221 218 217 215 215 216 216 216 216 200 192 217 233 246 250 245 239 225 217 223 239 247 240 229 220 214 209 214 223 238 249 240 224 210 206 208 210 214 222 234 248 260 260 249 242 250 263 271 270 261 249 266 275 275 274 273 265 253 240 232 229 224 219 219 222 220 217 214 213 216 222 231 243 251 255 262 270 269 267 266 267 267 257 247 238 234 241 244 240 242 246 246 254 248 244 244 238 238 246 256 255 246 235 230 234 242 249 251 247 243 240 238 237 236 236 235 234 233 233 233 232 232 233 234 235 235 235 235 235 236 238 240 243 245 250 251 251 250 249 248 248 247 247 247 248 248 248 248 248 247 246 246 246 245 245 246 246 247 247
43 43 44 44 44 44 44 44 44 44 44 43 44 44 44 44 44 43 43 43 43 43 43 43 43 43 43 43 43 43 43 43 44 44 44 44 44 44 44 45 45 45 45 46 46 46 46 46 53 69 81 80 76 75 76 88 101 108 107 104 99 89 83 81 86 99 108 105 92 93 94 96 102 110 112 112 112 111 111 112 112 113 112 111 112 113 114 115 115 114 113 112 108 103 101 103 108 111 112 112 109 108 108 111 112 110 110 113 115 115 114 113 113 112 112 113 113 114 114 115 115 116 116 117 117 118 119 120 120 120 120 121 122 122 123 124 125 125 125 125 125 125 124 125 126 126 126 126 126 127 127 127 127 127 127 127 127 127 127 128 128 128 128 128 128 128 129 130 131 132 132 133 134 134 135 135 135 135 136 136 136 136 136 136 137 137 137 137 138 138 138 138 139 139 139 139 139 139 140 140 140 141 139 133 137 141 142 142 143 143 144 144 145 145 145 145 145 145 145 144 141 145 148 148 148 148 149 149 149 149 150 150 150 150 151 151 151 151 151 152 152 153 154 154 155 156 156 157 158 158 159 159 160 160 160 161 160 160 160 159 158 160 161 162 163 163 163 164 164 164 164 164 164 164 164 164 164 164 164 164 164 164 164 164 165 165 166 166 166 167 168 169 170 171 171 172 173 173 174 175 176 177 177 178 179 180 181 182 183 184 187 189 190 190 187 181 177 174 171 170 174 183 194 203 209 211 210 207 199 195 195 187 183 192 204 210 210 208 201 188 182 181 178 176 177 180 182 191 196 202 207 216 222 212 201 198 204 213 225 237 236 231 231 234 241 250 258 258 256 253 248 246 246 236 226 217 213 206 199 196 194 192 190 187 184 182 181 181 180 186 183 172 174 178 181 188 190 192 196 204 212 215 216 221 226 228 230 235 242 247 253 254 255 259 263 269 274 276 277 278 273 268 274 280 283 285 290 291 283 274 262 248 239 230 219 212 207 206 206 209 219 231 240 238 228 220 214 206 199 193 188 181 173 185 190 191 192 193 195 202 210 217 224 231 239 250 258 266 275 274 267 265 262 257 254 252 252 252 248 241 235 223 223 238 254 266 264 257 252 249 244 235 224 224 225 224 224 220 215 211 208 203 197 208 217 232 242 252 259 265 257 246 236 225 219 217 216 214 211 214 216 216 216 202 194 214 229 241 240 236 230 219 214 224 238 240 232 225 217 211 208 212 219 233 244 239 222 209 205 208 213 220 231 243 256 254 245 239 240 254 267 270 263 248 247 265 272 271 270 269 264 257 249 245 239 229 220 218 220 220 217 215 212 217 230 240 243 244 252 263 267 267 264 264 265 263 256 244 233 230 233 236 238 242 245 246 249 246 240 241 237 234 246 251 247 240 233 230 236 243 249 255 254 246 242 239 237 236 235 234 233 232 232 233 232 232 233 233 233 234 233 233 234 237 238 241 243 245 248 249 249 249 248 247 246 246 245 245 245 246 246 246 245 245 245 245 245 245 244 245 245 246 246
43 43 44 44 44 44 44 44 44 44 44 43 43 44 44 44 43 43 43 43 43 43 43 43 43 43 43 43 43 43 43 43 43 44 44 44 44 44 44 44 45 45 45 46 46 47 48 49 61 75 81 77 73 74 79 92 103 106 105 103 99 91 84 82 87 99 107 102 91 92 93 95 104 110 111 111 110 110 110 110 111 111 111 110 111 111 112 113 113 112 112 110 106 102 99 100 105 109 109 109 107 103 104 108 109 109 111 112 113 113 112 112 111 110 110 111 111 111 111 112 112 113 114 115 115 116 116 117 118 118 118 119 119 120 121 122 123 123 123 123 122 122 122 123 124 124 125 125 125 125 125 126 126 126 126 126 126 126 126 127 127 127 127 127 127 127 129 129 130 131 132 132 133 133 134 134 135 135 135 135 135 136 136 136 136 136 137 137 137 137 138 138 138 138 138 139 139 139 139 140 140 140 137 133 137 141 141 141 142 143 143 144 144 144 143 143 143 143 141 140 142 146 147 147 148 148 148 149 149 149 149 150 150 150 150 150 150 151 151 151 152 152 153 154 154 155 156 156 157 158 158 159 159 160 160 160 160 160 160 159 159 159 160 161 162 162 163 163 163 163 163 163 163 163 163 163 163 163 163 163 163 163 164 164 164 165 165 165 166 166 167 168 169 170 171 172 172 173 174 175 175 176 176 177 179 181 182 182 183 183 186 187 186 185 183 179 178 170 170 177 180 192 202 206 208 210 209 206 198 189 189 185 180 190 201 203 205 205 202 196 187 181 179 175 178 181 184 193 199 205 211 220 223 212 200 199 206 217 231 231 223 219 226 237 248 255 255 253 249 244 241 243 251 244 233 222 217 210 199 195 192 190 187 184 182 181 180 179 179 181 171 176 184 187 192 195 197 195 196 204 212 218 223 229 233 236 237 245 251 256 260 262 264 265 265 265 263 267 266 268 262 257 267 279 284 287 289 287 277 268 261 253 245 238 225 214 206 204 204 209 219 231 235 228 219 211 207 202 195 190 186 175 175 186 189 190 192 194 195 204 216 225 234 239 245 254 262 269 271 266 261 260 258 254 249 247 247 248 243 236 229 219 221 236 252 262 261 255 248 243 239 233 224 220 220 220 221 219 214 209 204 199 197 211 224 234 242 249 256 260 255 246 234 222 218 216 216 212 204 207 212 217 215 201 193 216 235 242 237 230 223 214 213 223 233 234 227 221 214 208 206 210 217 227 240 236 220 206 203 211 216 225 240 254 261 248 237 233 244 259 268 266 253 241 251 265 267 267 265 263 262 259 262 259 244 230 219 218 218 218 216 214 212 220 236 241 236 237 248 262 263 260 258 262 263 261 253 241 230 229 233 239 245 248 248 246 243 242 237 239 235 233 243 241 235 229 228 234 241 247 252 261 260 247 242 240 239 237 236 235 233 232 232 232 232 231 232 233 233 233 232 232 235 238 240 242 244 245 246 247 248 248 247 246 245 245 244 243 244 244 244 244 244 244 244 245 245 245 243 244 245 245 245
43 44 44 44 44 44 44 44 44 44 44 43 43 43 44 43 43 43 43 43 43 43 43 43 43 43 43 43 43 43 43 43 43 43 43 43 44 44 44 44 44 45 45 46 47 48 48 50 64 79 80 74 71 73 81 95 102 105 104 101 98 92 84 82 84 97 105 97 90 90 91 94 104 110 110 110 109 109 109 109 110 110 110 109 109 110 110 111 111 111 110 108 105 101 97 98 102 106 107 106 106 104 103 105 107 108 110 111 111 111 111 110 109 108 109 109 109 109 109 109 110 111 112 113 113 114 114 115 116 116 116 116 117 118 119 121 121 121 122 121 121 121 121 122 123 123 124 124 124 124 124 124 124 125 125 125 125 125 125 126 126 126 126 126 126 127 128 129 130 130 131 131 132 133 133 134 134 134 135 135 135 135 135 135 135 136 136 136 136 137 137 137 137 138 138 138 138 138 139 139 139 138 135 133 137 140 140 141 142 142 143 143 143 142 142 142 141 140 140 141 143 146 147 147 147 148 148 148 148 149 149 149 149 149 149 149 150 150 150 151 151 152 153 153 154 155 155 156 156 157 158 158 159 159 160 160 160 160 160 160 158 159 160 160 161 161 162 162 162 162 162 162 162 162 162 162 163 163 163 163 163 163 163 164 164 164 164 165 165 165 166 167 168 169 171 171 172 173 173 174 175 176 176 178 179 181 183 183 183 184 185 184 182 182 180 178 177 170 170 177 188 199 202 203 207 209 210 208 202 193 184 180 178 188 195 196 200 198 193 191 187 180 178 175 176 181 187 195 201 207 214 222 222 209 198 199 207 218 222 216 214 224 236 246 251 251 248 243 239 236 240 249 253 244 233 223 218 210 200 192 190 187 184 182 180 179 179 180 176 171 170 187 186 189 193 199 202 201 200 207 215 222 228 234 241 246 248 255 260 264 265 265 264 261 257 252 251 259 252 258 247 250 266 275 280 282 284 282 274 262 255 253 247 241 233 220 208 203 201 203 213 226 229 217 211 205 201 197 192 187 182 170 181 187 189 194 196 195 200 209 220 232 241 248 252 262 268 270 265 259 255 255 255 253 250 245 242 243 240 234 227 217 221 237 251 259 260 253 245 238 235 232 224 218 213 212 212 213 212 208 202 196 198 208 216 226 234 241 253 256 250 243 233 221 216 215 215 210 196 199 205 217 215 192 193 220 238 245 234 223 218 211 212 221 230 229 224 220 212 206 204 209 217 225 236 232 216 203 203 213 221 233 247 261 260 244 230 230 246 260 263 258 242 237 253 258 261 263 262 260 258 254 259 254 238 225 218 217 216 216 215 213 212 222 235 236 229 237 250 263 259 252 252 259 261 257 247 235 226 228 238 248 251 253 251 243 239 238 233 238 233 231 235 230 227 227 232 239 248 252 255 253 257 247 242 244 242 238 236 235 233 232 232 232 231 231 232 233 233 233 232 232 237 240 241 243 244 246 246 247 247 247 246 245 245 244 243 243 242 243 243 242 242 242 243 244 244 244 241 242 243 244 244
43 43 44 44 44 44 44 44 44 44 44 43 43 43 43 43 43 43 43 43 43 43 43 43 43 43 43 43 43 43 43 43 43 43 43 43 43 43 44 44 44 44 45 46 47 48 48 50 65 80 79 73 70 71 76 84 100 103 102 99 97 93 85 81 85 95 98 91 88 89 90 94 105 107 108 108 108 108 108 108 109 109 109 108 108 108 109 109 109 109 107 105 104 100 97 97 99 104 105 104 103 103 103 104 106 107 109 110 110 109 109 108 107 107 106 106 106 107 107 108 108 109 110 111 111 111 112 113 113 114 114 115 116 117 118 119 119 120 120 120 120 120 120 121 122 122 123 123 123 123 123 123 124 124 124 124 124 124 125 125 125 125 126 126 126 126 127 128 129 129 130 131 131 132 132 133 133 134 134 134 134 134 134 135 135 135 135 136 136 136 136 137 137 137 137 138 138 138 138 138 137 137 135 134 137 138 140 141 141 142 142 142 142 142 141 139 140 140 141 142 143 145 146 146 147 147 147 148 148 148 148 149 149 149 149 149 149 149 150 150 151 151 152 153 153 154 155 155 156 157 157 158 158 159 159 159 159 160 160 160 157 159 160 160 161 161 161 161 161 162 162 162 162 162 162 162 162 162 162 162 162 163 163 163 163 164 164 164 164 165 166 166 167 169 170 171 171 172 173 173 174 175 176 177 179 181 183 183 184 184 184 183 182 181 179 177 173 167 172 185 196 198 198 202 205 207 208 208 204 197 189 181 177 184 189 192 197 194 186 180 178 176 176 174 174 178 185 193 200 208 218 221 210 200 194 197 204 209 209 211 219 231 243 248 248 244 238 234 231 238 247 256 252 244 234 226 216 204 195 189 187 185 182 180 179 178 178 179 168 166 180 187 187 191 196 202 206 207 206 210 218 225 231 237 245 254 259 259 260 261 262 261 260 256 247 239 242 250 242 245 236 248 263 270 273 276 278 275 268 260 248 245 243 240 234 223 211 203 200 199 205 218 219 210 204 200 196 192 189 185 176 171 184 185 190 199 203 204 209 217 227 238 247 255 261 266 269 265 259 254 251 250 249 247 244 242 239 238 237 233 225 214 219 234 249 256 257 252 242 234 231 230 224 218 213 209 207 207 208 207 201 194 199 209 218 226 233 241 252 253 244 234 223 215 214 213 213 210 200 197 204 214 214 187 198 227 243 246 233 220 211 207 210 218 225 224 221 217 210 203 204 210 216 224 231 223 209 201 205 216 230 243 255 258 251 236 224 228 242 256 257 247 235 237 251 251 255 259 259 259 254 247 257 251 234 221 216 214 215 214 214 212 212 222 226 225 227 241 255 261 254 243 248 259 264 257 245 231 223 230 243 253 258 259 254 243 236 233 232 235 230 225 225 225 226 232 238 244 250 247 243 245 249 244 237 242 245 240 237 235 233 232 232 231 230 230 232 232 232 232 231 233 238 240 242 243 245 247 247 247 247 247 246 245 244 243 243 242 242 241 241 241 241 241 241 242 242 241 239 240 242 242 243
43 43 43 44 44 44 44 44 44 44 44 43 43 43 43 43 43 43 43 43 42 42 42 42 42 42 42 42 42 43 43 43 43 43 43 43 43 43 43 43 44 44 45 46 47 48 48 55 70 81 77 71 70 71 76 85 100 101 100 98 95 93 84 82 85 91 87 86 88 89 91 97 104 105 106 107 107 107 107 107 108 108 108 107 107 107 107 107 107 106 105 103 101 99 97 97 97 99 102 102 101 101 101 103 105 106 107 108 108 107 107 106 105 105 104 104 104 105 106 106 107 108 108 109 109 110 110 110 111 112 113 114 115 116 117 117 118 118 118 118 119 119 119 120 120 121 121 122 122 122 122 122 123 123 123 123 123 123 124 124 125 125 125 125 125 126 127 128 128 129 129 130 131 131 132 132 133 133 133 133 134 134 134 134 134 134 135 135 135 136 136 136 136 137 137 137 137 137 137 137 137 136 135 135 136 138 139 140 141 142 142 142 142 140 139 141 142 142 141 142 143 144 145 146 146 147 147 147 147 148 148 148 148 148 148 148 149 149 149 150 150 151 152 152 153 154 154 155 155 156 157 157 158 158 159 159 159 160 160 159 157 159 160 160 160 160 161 161 161 161 161 161 161 161 161 161 161 161 162 162 162 162 162 163 163 163 164 164 164 164 165 166 167 167 169 170 171 171 172 173 174 175 176 177 178 180 182 183 183 184 184 183 182 181 179 176 167 167 179 189 195 194 196 201 202 202 204 206 202 195 188 180 173 179 183 189 195 197 186 178 176 176 175 173 172 174 179 188 198 209 221 219 207 196 192 194 198 201 204 211 222 234 244 246 241 235 230 228 233 244 255 256 251 240 230 223 215 201 191 187 185 182 180 179 177 177 178 173 164 175 188 188 190 193 199 204 209 212 212 214 221 228 235 242 249 256 262 256 249 250 254 256 257 254 243 231 235 238 230 229 227 244 255 262 267 272 272 267 258 252 244 238 237 234 228 220 210 201 199 198 199 207 207 198 196 194 191 189 187 182 169 175 184 182 190 198 206 212 217 225 234 243 252 260 264 265 265 261 254 250 247 245 244 242 240 237 235 234 233 230 223 214 215 232 243 248 254 251 240 232 227 225 221 216 213 209 207 203 202 204 200 193 200 211 221 233 242 246 251 252 244 233 220 213 213 212 211 210 206 195 193 206 205 186 201 230 249 245 231 216 205 204 209 219 223 220 217 212 205 201 203 210 216 224 226 215 204 200 209 219 233 247 258 252 244 229 222 227 241 256 255 242 231 235 246 245 251 254 256 258 251 242 252 248 231 220 214 213 213 213 212 210 212 217 216 219 231 245 258 256 247 241 251 261 262 255 243 229 222 233 246 254 259 260 256 247 236 227 229 230 227 223 224 228 230 234 239 245 246 241 236 236 242 238 231 238 243 243 239 237 236 232 231 231 229 229 230 231 231 230 230 235 239 242 244 245 247 249 249 249 248 247 246 245 244 243 242 242 241 241 240 239 240 240 240 240 239 238 238 239 240 240 241
43 43 43 44 44 44 44 44 44 44 44 43 43 43 43 43 43 43 43 42 42 42 42 42 42 42 42 42 42 42 42 43 43 43 43 43 43 43 43 43 43 44 44 45 47 48 49 56 72 81 74 71 70 72 77 89 100 100 98 96 94 91 84 82 84 86 85 86 87 89 91 98 104 105 106 106 106 106 106 107 107 107 106 106 106 106 106 106 105 104 103 102 99 98 97 97 97 98 99 99 99 99 99 102 105 104 105 105 105 105 105 105 104 103 103 103 103 103 104 104 105 106 107 107 108 108 108 109 110 111 112 113 114 115 115 116 117 117 117 117 117 118 118 119 119 120 120 121 121 121 121 122 122 122 122 122 122 123 123 124 124 124 124 124 125 126 126 127 128 128 129 129 130 130 131 131 132 132 133 133 133 133 133 133 134 134 134 134 135 135 135 136 136 136 136 137 137 137 137 136 136 136 135 134 137 138 139 140 141 141 142 141 139 140 143 143 142 142 142 142 143 143 144 145 146 146 146 147 147 147 147 148 148 148 148 148 148 148 148 149 150 151 151 152 152 153 154 154 155 155 156 157 157 157 158 158 159 159 159 158 158 159 159 160 160 160 160 160 160 160 160 160 160 161 161 161 161 161 161 161 162 162 162 162 163 163 163 163 164 164 164 165 165 167 168 169 170 171 171 172 173 175 176 177 178 180 181 182 183 183 184 183 182 180 179 178 164 170 182 186 186 192 197 198 197 196 204 206 200 190 182 176 170 174 178 186 194 201 194 181 176 175 174 172 171 172 178 185 197 210 214 208 199 194 192 194 199 201 206 213 224 236 243 241 234 226 222 227 239 251 254 252 245 234 223 214 208 194 187 184 182 179 178 177 176 176 176 169 168 181 185 189 194 198 203 208 213 217 219 222 227 232 238 247 254 257 259 255 244 237 243 246 251 252 243 228 223 221 218 224 233 242 250 258 269 271 269 259 252 246 240 234 231 227 221 214 207 201 198 197 196 195 194 192 191 189 188 187 186 183 171 172 177 183 192 199 206 215 221 227 234 246 256 261 262 262 261 259 251 245 243 241 240 238 235 232 231 230 228 226 221 212 212 230 236 246 253 250 239 231 225 222 219 214 211 208 206 204 201 201 199 193 202 214 225 237 243 245 247 249 241 228 215 213 212 211 211 210 210 204 189 199 193 196 220 239 252 245 232 217 204 202 209 219 221 216 212 207 200 200 204 213 220 226 224 212 202 200 211 222 235 248 259 251 236 224 221 225 238 253 256 244 230 227 232 239 251 247 252 255 247 236 246 241 226 217 213 212 212 211 210 209 211 212 215 221 234 248 254 246 239 242 254 260 258 250 239 224 221 232 243 252 256 258 255 247 235 225 226 225 222 222 227 233 234 236 239 243 241 238 232 227 231 232 228 234 238 243 244 242 240 235 236 232 227 226 228 228 228 228 230 235 240 242 245 249 251 251 250 250 249 248 247 246 245 243 242 242 241 240 239 238 238 238 238 239 238 238 237 238 238 238 239
43 43 43 43 44 44 44 44 44 44 43 43 43 43 43 43 43 43 42 42 42 42 42 42 42 42 42 42 42 42 42 42 42 42 43 43 43 43 43 43 43 43 44 45 46 48 49 55 68 77 73 70 69 71 76 86 96 98 95 93 92 90 82 81 83 84 84 85 86 88 91 100 104 105 105 105 105 105 106 106 106 106 105 105 105 105 105 104 104 103 102 101 99 98 97 97 97 98 98 98 97 97 98 101 103 103 104 104 103 103 103 103 102 102 102 102 102 102 103 103 103 104 105 105 106 106 107 108 109 110 111 112 113 114 114 115 116 116 116 116 116 117 117 118 118 119 119 120 120 120 120 121 121 121 121 121 122 122 123 123 123 124 124 124 124 125 126 126 127 128 128 129 129 130 130 131 131 131 132 132 132 133 133 133 133 133 134 134 134 135 135 135 135 136 136 136 136 136 136 136 136 135 135 135 137 138 139 139 140 141 141 138 139 143 143 143 142 142 142 142 143 143 144 144 145 145 146 146 146 147 147 147 148 148 148 147 147 147 148 149 149 150 151 152 152 153 153 154 154 155 155 156 156 157 157 158 158 159 159 158 157 159 159 159 159 159 159 159 159 159 160 160 160 160 160 160 160 161 161 161 161 161 162 162 162 162 163 163 163 164 164 164 165 165 166 167 169 170 171 172 173 174 176 177 178 179 180 181 182 183 184 183 182 180 179 178 164 173 179 181 185 195 197 193 192 196 202 207 204 196 185 175 170 172 181 189 195 202 202 188 177 175 173 172 170 173 181 189 201 205 201 196 191 190 192 194 202 205 208 214 225 237 237 230 225 219 221 232 245 251 246 239 234 230 219 206 195 186 184 181 178 176 176 175 175 174 172 165 168 179 183 189 195 203 209 213 218 223 227 229 233 237 243 250 256 256 254 253 245 231 230 235 245 249 241 226 211 210 221 234 244 247 253 264 272 269 262 254 247 240 235 230 225 222 217 211 207 202 199 195 194 192 191 190 189 188 187 186 185 185 171 168 176 189 195 199 206 215 221 228 237 248 257 259 260 259 257 257 250 242 239 238 236 234 231 228 225 225 221 220 214 206 215 226 233 247 253 248 237 228 222 219 217 213 209 206 203 202 199 196 195 193 203 217 230 236 235 237 243 246 237 222 212 212 211 211 210 210 209 205 190 191 189 207 228 243 252 244 231 218 203 200 207 216 217 211 206 201 197 200 208 218 226 230 221 208 200 202 212 225 239 251 258 255 239 224 219 222 236 246 249 245 231 224 227 241 250 240 247 252 245 231 238 233 219 214 213 212 211 210 210 209 210 212 215 226 238 250 246 236 237 247 256 258 251 243 233 219 221 231 240 248 252 252 251 243 230 224 223 221 222 229 230 232 233 237 240 240 236 233 229 223 224 226 225 231 235 238 247 249 247 244 243 233 227 225 226 227 227 228 230 233 239 242 246 249 251 252 251 251 250 250 249 248 246 244 243 242 241 240 239 238 237 237 237 237 237 237 237 237 237 237 238
43 43 43 43 44 44 44 44 43 43 43 43 43 43 43 43 43 42 42 42 42 42 42 42 42 42 42 42 42 42 42 42 42 42 42 42 42 42 42 43 43 43 43 44 46 48 51 59 70 77 73 69 68 69 72 79 88 94 92 91 90 85 79 81 82 83 83 84 85 90 97 100 103 103 104 104 105 105 105 105 105 104 104 104 104 103 103 103 102 101 101 100 99 98 97 96 96 97 97 97 97 97 98 100 102 102 102 102 102 102 102 101 101 101 100 101 101 101 102 102 102 103 103 104 104 105 106 107 108 109 110 111 112 112 113 114 114 115 115 115 115 116 116 117 117 118 118 119 119 119 120 120 120 120 120 121 121 122 122 122 123 123 123 124 124 125 125 126 127 127 128 128 129 129 130 130 130 131 131 131 132 132 132 132 133 133 133 133 134 134 135 135 135 135 135 136 136 136 136 136 136 133 134 136 137 138 138 138 139 138 136 135 142 143 142 142 142 142 142 142 142 142 143 143 144 145 145 145 146 146 147 147 147 147 147 147 147 147 147 148 149 150 151 151 152 152 153 153 154 154 155 155 156 156 157 157 158 158 158 156 155 158 159 159 159 159 159 159 159 159 159 159 159 159 160 160 160 160 160 161 161 161 161 161 162 162 162 163 163 163 163 164 164 165 166 167 168 169 170 171 172 174 175 177 178 178 179 180 181 182 183 183 181 180 178 173 166 174 176 181 187 193 192 186 190 196 200 205 204 201 188 176 170 172 182 191 196 200 203 192 178 174 173 172 169 176 186 194 196 194 189 188 187 189 191 195 201 207 210 216 226 234 229 219 214 216 224 235 246 246 237 223 215 216 214 203 189 184 182 179 177 175 175 174 173 173 168 164 168 176 186 190 196 203 210 216 223 229 233 235 239 243 248 251 249 246 243 243 240 228 219 230 241 244 238 221 207 212 229 240 247 250 257 267 271 265 256 250 243 237 230 224 218 215 212 209 207 204 199 194 192 190 189 188 187 187 186 185 185 184 179 167 182 195 199 204 212 218 226 235 243 251 256 257 258 254 251 253 250 241 236 234 233 230 227 225 220 217 213 213 208 202 212 219 235 245 252 249 239 228 219 217 215 212 208 203 200 198 196 193 192 193 205 220 232 232 229 233 239 243 232 218 211 211 211 210 210 209 209 198 190 185 197 218 232 240 248 240 227 214 201 199 204 213 213 205 200 196 197 201 210 218 227 227 215 203 198 203 213 226 236 243 252 253 237 224 218 217 229 233 236 242 229 222 228 244 242 234 243 248 243 229 233 227 216 213 212 211 210 210 209 208 209 212 217 231 242 245 236 232 241 252 258 255 248 238 228 216 224 234 243 250 251 243 244 242 229 222 220 219 226 238 234 230 233 238 238 235 232 225 221 218 219 220 221 229 233 237 245 251 249 247 244 236 228 225 226 226 227 228 230 232 236 240 243 246 249 251 252 252 252 252 251 249 247 245 243 242 241 240 239 238 238 237 237 237 237 236 236 237 237 237 237
43 43 43 43 43 43 43 43 43 43 43 43 43 43 43 43 42 42 42 42 42 42 42 42 42 42 42 42 42 42 42 42 42 42 42 42 42 42 42 42 42 43 43 43 46 51 59 69 79 80 72 67 66 67 70 77 84 90 89 88 88 84 79 81 81 82 83 84 85 94 99 100 101 101 102 103 103 103 104 104 104 103 103 103 102 102 102 101 100 100 99 99 98 97 96 96 96 96 96 96 96 97 98 99 100 101 101 101 101 101 100 100 99 99 99 99 99 100 100 101 101 102 102 103 103 104 105 106 107 108 109 110 111 111 112 113 113 113 114 114 114 115 115 116 116 117 117 118 118 118 119 119 119 120 120 120 121 121 122 122 122 122 123 123 124 124 125 125 126 127 127 128 128 129 129 130 130 130 131 131 131 131 132 132 132 132 133 133 133 134 134 134 134 135 135 135 135 135 135 135 135 132 135 137 138 138 138 136 135 134 134 136 140 141 141 141 141 142 142 142 142 142 142 143 143 144 144 145 145 145 146 146 147 147 146 146 147 147 147 148 149 150 150 151 151 152 152 153 153 154 154 155 155 156 156 156 157 157 156 154 153 155 157 158 158 158 158 158 158 158 158 158 159 159 159 159 159 160 160 160 160 161 161 161 161 161 162 162 162 163 163 163 164 164 165 166 167 168 169 170 172 173 174 175 177 178 179 180 181 182 183 183 181 180 179 168 168 173 176 181 187 189 185 182 187 191 198 201 202 201 192 180 171 171 178 187 194 197 199 194 179 171 172 172 169 179 188 189 186 184 185 185 186 187 190 194 200 206 209 214 223 226 220 211 209 217 225 234 243 244 236 221 208 201 200 195 187 182 179 177 176 174 174 173 172 172 164 164 172 182 187 192 198 205 214 222 229 236 239 241 245 248 249 244 239 233 230 230 227 219 217 230 235 237 233 216 204 214 230 241 248 254 262 271 271 262 254 247 240 234 226 219 213 210 208 206 204 201 196 193 191 189 188 187 186 186 185 184 184 184 174 168 190 199 206 214 220 226 233 240 247 250 250 252 253 247 243 247 247 241 235 231 229 226 223 220 217 213 206 206 203 200 210 222 235 243 251 251 240 228 218 215 213 210 207 201 197 195 193 192 191 195 210 225 233 225 225 232 238 240 228 215 210 208 209 210 209 209 208 191 186 191 212 228 226 234 244 238 223 210 199 197 201 208 208 199 194 194 197 202 213 220 224 217 206 199 199 202 211 218 229 239 251 252 235 223 216 214 218 219 225 237 226 219 227 242 235 226 236 242 238 227 229 223 215 213 212 211 210 209 208 208 209 211 217 229 240 238 228 232 245 253 253 251 244 235 223 214 224 235 246 252 250 238 234 234 225 219 219 225 233 237 233 231 232 234 233 230 232 229 223 217 215 216 220 226 231 238 244 248 242 242 246 239 227 224 224 225 227 227 229 230 232 235 236 239 242 248 252 252 252 253 253 252 250 248 245 243 242 242 239 238 237 237 237 237 236 236 236 236 236 236 237
43 43 43 43 43 43 43 43 43 43 43 43 43 43 43 43 42 42 42 42 42 42 42 41 41 41 41 41 41 41 41 42 42 42 42 42 42 42 42 42 42 42 42 43 47 59 71 80 86 82 72 65 64 67 75 82 84 87 87 85 84 81 79 80 80 81 82 85 91 98 99 99 98 99 100 100 101 101 102 103 103 102 102 102 101 101 100 99 99 98 98 97 97 97 96 96 95 95 96 96 96 97 98 99 99 100 100 100 100 99 99 98 98 98 98 98 98 99 99 100 100 101 101 102 103 104 104 105 106 107 108 109 110 111 111 112 112 112 113 113 114 114 115 115 116 116 116 117 117 117 118 118 119 119 119 120 120 120 121 121 121 122 122 123 123 124 124 125 126 126 127 127 128 128 129 129 129 130 130 130 131 131 131 131 132 132 132 132 133 133 133 134 134 134 134 135 135 135 135 135 135 133 136 137 138 137 137 135 133 135 135 135 136 139 141 140 140 140 141 141 141 141 142 142 143 143 144 144 144 145 145 145 146 146 147 147 147 147 148 148 149 149 150 150 151 151 152 152 153 153 154 154 155 155 156 156 156 156 155 153 152 153 155 156 157 157 157 157 157 158 158 158 158 158 159 159 159 159 159 160 160 160 160 161 161 161 161 162 162 162 163 163 163 164 164 165 166 167 168 170 171 172 173 174 176 177 178 179 180 181 182 182 180 179 179 169 163 172 175 180 184 182 181 184 190 194 198 199 198 199 195 185 173 169 175 182 188 192 196 191 176 170 171 171 169 179 186 183 180 181 182 182 183 185 188 193 198 202 207 214 219 217 210 204 210 217 224 231 238 241 238 227 214 203 191 186 184 180 177 176 174 174 173 173 172 169 162 167 175 183 187 194 200 209 219 228 235 242 246 246 245 245 241 235 231 227 223 220 215 207 213 221 224 228 225 209 202 217 229 243 250 257 265 271 270 263 255 247 240 234 227 217 210 206 205 203 201 198 194 191 189 188 187 186 185 185 184 182 183 178 167 175 193 203 216 225 231 236 241 245 246 244 242 244 245 239 234 237 241 241 237 231 227 224 219 215 213 210 202 199 198 204 220 232 238 243 247 249 239 227 216 212 210 208 204 198 194 192 191 190 191 199 214 228 231 220 223 231 237 241 232 216 208 205 208 209 208 207 204 189 187 208 226 222 220 228 239 239 225 209 198 194 197 203 201 194 192 194 199 206 216 221 217 207 200 197 200 206 217 227 238 248 257 251 235 222 217 213 212 214 224 234 222 218 224 239 232 218 230 237 231 223 227 219 214 212 211 210 209 209 208 207 208 210 215 225 234 229 224 233 246 250 245 243 237 233 219 214 223 235 245 251 249 238 228 224 220 218 222 233 240 239 236 236 238 235 230 226 226 228 225 217 212 215 220 226 232 239 242 240 237 239 245 235 224 223 223 225 226 227 227 229 231 232 233 237 241 248 252 251 250 254 256 257 256 252 248 246 246 245 242 239 238 238 237 237 237 236 235 236 236 236 237
43 43 43 43 43 43 43 43 43 43 43 43 43 43 43 42 42 42 42 42 42 41 41 41 41 41 41 41 41 41 41 41 41 41 42 42 42 42 42 42 42 42 43 45 51 65 80 88 87 82 74 66 65 68 78 86 85 86 86 82 79 78 79 79 79 80 82 88 95 98 98 97 97 97 98 99 99 100 100 101 101 101 101 100 100 100 99 98 97 97 96 96 96 95 95 95 95 95 95 96 96 97 98 98 99 99 99 99 98 98 98 97 97 97 97 97 97 98 98 99 100 100 101 101 102 103 104 104 105 106 107 108 109 110 111 111 111 111 112 112 113 113 114 114 115 115 116 116 116 117 117 118 118 118 119 119 119 120 120 121 121 121 122 123 123 124 124 124 125 126 126 127 127 128 128 129 129 129 130 130 130 130 130 131 131 131 132 132 132 132 133 133 133 133 134 134 135 135 135 134 132 135 136 137 137 137 135 134 135 136 136 137 139 141 142 142 142 142 141 141 140 140 141 142 142 143 143 143 144 144 144 144 145 146 147 147 148 148 148 148 149 149 149 150 151 151 151 152 152 153 153 154 154 155 155 155 155 155 155 154 153 153 154 155 156 156 156 157 157 157 157 157 158 158 158 158 159 159 159 159 159 160 160 160 160 161 161 161 161 162 162 163 163 163 164 164 165 166 167 169 170 171 172 173 174 175 177 178 178 179 180 180 179 178 177 172 163 168 174 177 179 177 180 185 189 193 196 196 194 195 195 186 174 169 171 176 182 189 194 188 173 170 171 171 170 179 182 177 177 178 180 181 182 182 187 192 196 203 208 210 207 205 200 203 209 214 221 229 236 240 237 229 218 206 192 184 182 178 176 174 173 173 172 172 169 161 165 174 182 188 193 198 203 209 219 229 238 247 248 245 238 234 230 226 224 222 219 217 211 201 205 211 213 218 215 202 203 221 235 245 253 259 264 268 267 262 254 245 238 233 228 220 211 203 202 201 199 196 191 189 188 187 186 185 184 184 183 178 183 168 166 185 197 211 224 233 240 244 245 245 242 238 236 238 239 234 227 227 236 241 238 231 225 221 216 212 208 205 199 193 199 213 230 241 243 242 241 246 244 232 218 209 206 204 201 195 190 190 190 189 193 204 218 227 222 216 223 230 236 240 232 217 204 201 206 209 209 205 191 184 195 218 226 216 215 225 235 235 224 209 197 192 193 196 194 192 192 196 205 216 225 223 210 200 197 197 202 212 224 237 248 256 259 250 234 223 217 213 210 215 229 235 222 216 219 233 231 216 222 229 221 219 226 218 215 212 210 209 208 208 207 206 207 210 215 227 229 220 225 238 246 246 238 232 229 227 216 214 222 233 243 249 249 241 227 219 217 218 226 239 244 241 240 240 240 237 231 225 219 221 221 215 213 217 222 231 237 240 240 234 230 233 235 229 222 221 223 224 225 226 226 228 232 235 237 240 245 251 249 247 251 255 258 260 259 257 253 251 251 248 246 245 244 243 241 239 238 237 235 235 235 236 237
43 43 43 43 43 43 43 43 43 43 43 43 43 43 42 42 42 42 42 42 41 41 41 41 41 41 41 41 41 41 41 41 41 41 41 41 42 42 42 42 42 43 43 48 61 71 82 88 85 78 71 67 67 67 74 83 83 84 83 79 77 77 77 77 78 79 86 92 95 96 96 96 96 96 97 97 98 99 99 100 100 100 100 99 99 99 98 97 96 95 94 94 94 94 94 94 94 94 95 95 96 96 97 98 98 98 98 98 97 97 97 97 96 96 96 96 97 97 98 98 99 100 100 101 102 102 103 104 104 105 106 107 108 109 110 110 110 111 111 111 112 113 113 114 114 115 115 115 116 116 117 117 117 118 118 118 119 119 120 120 120 121 122 122 122 123 124 124 125 125 126 126 127 127 128 128 128 129 129 129 130 130 130 130 130 131 131 131 131 132 132 132 132 133 133 133 133 133 133 131 131 135 136 136 137 137 135 134 135 136 137 139 140 141 141 142 142 142 142 141 141 141 141 141 142 142 143 143 143 143 144 144 145 146 147 147 147 148 148 148 148 149 149 150 150 151 151 151 152 152 153 153 154 154 155 155 155 155 154 154 153 153 153 154 155 155 156 156 156 156 157 157 157 157 158 158 158 158 159 159 159 159 159 160 160 160 160 160 161 161 161 162 162 163 163 164 164 165 166 167 169 170 171 171 172 173 174 176 177 178 178 179 178 177 175 174 166 166 173 175 176 177 180 182 187 192 195 195 190 190 193 185 173 169 168 172 181 189 192 188 172 169 169 168 170 176 176 174 175 177 179 180 181 183 189 195 202 208 210 203 195 196 197 202 206 211 219 229 235 237 233 225 216 205 195 184 179 176 173 172 171 171 170 168 160 164 179 184 188 193 199 204 208 212 220 229 239 244 242 237 229 225 221 219 217 216 216 215 211 200 197 204 204 208 205 195 207 224 236 245 252 257 261 262 262 260 251 241 235 233 229 223 215 203 199 198 197 193 189 187 187 185 184 184 183 182 180 177 177 164 174 191 205 219 230 236 244 251 246 240 236 234 232 232 235 231 221 220 232 241 239 232 224 219 214 210 206 198 191 197 210 221 237 247 245 241 235 239 240 230 218 207 203 199 195 190 188 188 188 189 195 208 220 220 214 213 222 229 234 237 229 214 203 200 202 206 208 206 188 192 208 220 219 212 214 225 232 234 226 212 197 190 189 190 191 192 193 201 214 224 225 218 205 195 196 199 208 219 232 241 245 251 256 252 235 223 216 212 209 215 229 238 225 214 215 225 229 215 214 218 212 223 228 219 215 212 209 208 208 207 206 206 207 212 220 231 224 217 228 242 247 243 235 226 221 219 212 215 224 235 241 244 245 236 224 218 216 219 227 239 240 237 236 237 240 239 234 229 222 215 213 212 215 220 227 234 236 235 235 229 224 227 229 225 220 220 222 224 224 225 225 228 234 240 243 246 250 251 244 243 248 252 260 263 263 261 257 257 255 252 251 252 251 250 247 243 240 238 236 234 235 235 236
43 43 43 43 43 43 43 43 43 43 43 43 43 42 42 42 42 42 42 41 41 41 41 41 41 40 40 40 40 41 41 41 41 41 41 41 41 42 42 42 42 42 43 50 59 69 81 85 82 76 67 65 65 66 70 77 79 80 78 75 74 75 76 76 78 80 92 93 93 93 93 94 94 94 95 95 97 99 99 99 99 99 98 98 98 98 97 95 94 93 92 92 93 93 93 93 93 94 94 95 95 96 96 97 97 97 97 97 97 96 96 96 96 96 95 95 96 97 97 98 98 99 99 100 101 101 102 103 104 104 105 106 107 108 108 109 109 109 109 110 111 112 112 113 113 114 114 115 115 116 116 116 117 117 117 118 118 119 119 119 120 121 121 122 122 123 123 124 124 125 125 126 126 127 127 127 128 128 128 129 129 129 129 130 130 130 130 131 131 131 131 132 132 132 132 132 131 131 130 129 132 134 135 136 137 136 134 135 136 137 138 139 140 141 141 141 142 142 142 142 142 141 141 141 141 142 142 143 143 143 144 144 145 146 146 147 147 147 148 148 148 149 149 149 150 150 151 151 151 152 152 153 153 154 154 154 155 155 154 154 153 153 153 154 154 155 155 155 156 156 156 156 157 157 157 157 158 158 158 158 158 159 159 159 159 159 160 160 160 161 161 161 162 162 163 163 164 164 165 166 167 168 168 169 169 170 171 173 175 177 177 178 177 175 174 173 171 162 172 173 173 176 176 181 189 191 192 192 188 183 188 185 175 169 168 172 181 187 191 188 175 168 167 166 169 170 171 172 175 177 179 181 184 191 197 206 210 212 208 196 188 192 197 202 207 213 222 230 234 233 227 217 210 201 192 182 176 173 171 170 170 169 164 158 162 181 193 194 196 200 205 209 212 218 224 230 233 235 234 231 224 218 214 212 212 211 211 210 207 199 192 196 194 195 193 197 208 222 233 240 246 254 256 256 257 256 249 239 230 227 228 225 216 203 195 196 194 191 188 186 185 184 183 182 182 180 178 175 173 163 180 192 208 222 230 235 246 248 242 236 231 229 225 226 231 229 215 215 231 237 236 231 227 219 212 207 203 191 191 205 217 231 244 250 247 241 228 232 234 230 222 211 199 194 189 188 187 187 186 189 197 210 221 215 208 214 223 229 232 230 220 209 203 193 197 203 207 204 185 200 211 213 211 210 217 224 228 232 225 213 197 188 188 189 191 192 198 212 221 222 215 207 196 193 197 201 213 227 237 239 237 241 250 250 239 223 212 207 207 216 230 240 227 214 211 216 218 211 206 208 216 233 232 220 213 209 207 207 207 206 206 205 207 217 230 230 217 221 234 243 244 241 234 225 217 212 210 218 229 236 238 239 239 227 218 216 216 222 232 240 234 229 230 234 237 236 233 229 221 212 209 214 216 220 229 236 234 230 227 224 223 227 226 222 219 220 220 223 225 225 225 229 235 243 248 251 253 250 244 237 243 251 261 264 263 264 263 263 260 258 258 257 254 252 248 243 242 241 239 235 234 234 235
43 43 43 43 43 43 43 43 43 43 43 43 42 42 42 42 42 42 42 41 41 41 41 41 40 40 40 40 40 40 40 41 41 41 41 41 41 41 42 42 42 42 43 52 63 75 81 77 75 68 63 62 63 65 70 73 75 76 75 73 74 76 77 81 86 93 93 93 92 91 91 92 93 93 93 93 96 98 98 98 98 98 97 97 97 96 95 93 92 91 91 91 92 92 92 92 93 93 94 94 94 95 95 96 96 96 96 96 96 96 95 95 95 95 95 95 95 96 97 97 98 98 99 100 100 101 102 102 103 103 104 105 106 107 107 108 107 105 104 110 111 111 112 112 113 113 114 114 115 115 115 116 116 116 117 117 118 118 119 119 119 120 121 121 122 122 123 123 124 124 125 125 126 126 127 127 127 128 128 128 128 129 129 129 129 130 130 130 130 131 131 131 131 131 131 130 129 129 129 130 131 133 135 136 137 134 135 135 136 137 138 139 140 141 141 141 141 141 142 141 141 141 141 141 141 142 142 142 143 143 143 144 145 145 146 146 147 147 147 147 148 148 149 149 149 150 150 151 151 152 152 152 153 153 153 154 154 154 154 154 153 152 153 154 154 154 155 155 155 155 156 156 156 156 157 157 157 157 157 158 158 158 158 158 159 159 159 159 160 160 160 161 161 161 162 162 163 164 164 165 165 166 166 166 166 167 169 171 173 175 176 177 177 175 171 172 170 163 172 171 171 174 177 182 187 189 190 191 187 179 181 186 179 170 167 170 176 185 189 186 173 165 166 167 169 169 170 173 176 180 186 190 195 201 206 208 207 206 199 189 185 192 198 205 212 219 225 229 230 229 222 212 203 196 188 179 173 172 170 169 168 164 158 163 177 192 199 202 206 209 211 214 216 222 229 228 223 226 229 227 219 212 209 207 207 205 205 203 200 195 184 185 187 188 200 210 214 218 226 237 246 253 253 250 252 253 249 244 236 225 224 223 213 202 193 191 190 188 186 185 184 183 182 181 180 179 175 174 167 165 184 191 202 216 225 230 242 242 236 232 226 221 218 218 223 219 210 217 230 230 226 227 225 220 210 199 195 186 199 214 227 239 246 250 245 238 223 228 236 237 230 217 199 191 188 186 185 185 185 189 199 211 218 210 206 217 225 229 227 220 211 206 203 192 190 200 208 197 183 198 210 209 211 215 222 218 220 226 218 207 191 186 187 190 192 198 210 220 218 211 202 195 191 193 198 207 220 232 233 229 226 236 241 237 238 221 208 204 207 219 232 238 230 216 211 210 210 207 204 211 226 239 236 222 211 207 206 206 206 205 204 206 213 226 233 224 212 224 234 237 240 237 231 224 215 210 211 220 232 235 232 232 228 219 215 215 218 227 237 235 225 225 229 233 232 229 225 221 214 207 211 220 221 221 227 232 233 231 225 220 222 227 224 220 218 219 219 223 227 229 228 231 237 244 249 250 251 248 240 236 244 252 256 256 260 264 265 264 262 263 263 257 254 251 248 246 243 243 241 239 234 234 234
43 43 43 43 43 43 43 43 43 43 43 42 42 42 42 42 42 42 41 41 41 41 41 40 40 40 40 40 40 40 40 40 40 41 41 41 41 41 42 42 42 42 46 55 66 78 77 67 62 61 59 60 61 65 69 71 73 73 73 74 75 77 81 88 92 92 92 91 91 90 90 91 92 91 92 93 95 97 97 97 97 96 96 96 95 94 93 92 91 90 90 90 91 91 91 91 92 93 93 93 94 94 94 95 95 95 95 95 95 95 95 94 94 94 94 94 95 95 96 96 97 98 98 99 100 100 101 101 102 103 103 104 105 106 107 106 104 104 106 109 110 111 111 112 112 113 113 114 114 114 115 115 115 116 116 117 117 118 118 119 119 120 120 121 121 122 122 123 123 124 124 125 125 126 126 126 127 127 127 128 128 128 128 128 129 129 129 129 130 130 130 130 130 130 130 129 128 128 129 129 131 133 134 135 135 133 136 136 137 137 138 139 140 140 141 141 141 141 141 141 141 141 141 141 141 142 142 142 142 143 143 144 144 145 146 146 146 146 147 147 147 148 148 148 149 149 150 150 151 151 151 152 152 153 153 154 154 154 154 154 153 152 153 153 154 154 154 154 155 155 155 155 156 156 156 156 157 157 157 157 157 158 158 158 158 158 159 159 159 160 160 160 160 161 161 160 161 162 163 164 164 164 164 163 164 165 168 170 171 173 174 175 175 174 171 169 167 165 171 171 171 173 177 182 185 185 187 188 183 174 173 180 178 170 166 170 178 186 186 178 167 165 166 168 170 172 174 178 185 192 196 199 202 202 203 200 200 198 191 183 184 193 200 209 218 223 224 223 222 222 218 208 196 190 182 173 172 170 169 168 164 159 164 175 183 190 198 203 209 214 216 219 222 227 229 222 216 223 227 222 212 207 205 204 202 200 199 198 195 188 182 186 194 199 207 217 224 230 236 244 252 253 250 245 247 249 251 247 239 225 217 217 210 202 192 188 185 184 184 183 182 181 181 180 179 179 171 174 163 171 182 188 203 219 227 232 241 239 232 227 221 215 211 209 212 206 206 219 227 224 217 215 215 214 205 191 185 189 209 224 235 240 242 243 240 228 216 227 239 239 229 217 201 190 187 184 183 184 185 192 201 211 213 204 205 216 226 229 220 212 207 205 204 197 187 203 199 188 184 197 205 207 213 220 218 209 217 219 208 197 188 185 186 190 195 206 219 221 215 204 197 192 191 195 206 217 229 232 222 219 218 230 231 228 233 218 206 202 208 222 233 234 234 220 211 207 207 205 206 218 233 239 236 224 211 207 206 205 205 204 204 211 221 227 224 216 213 224 229 230 236 232 224 219 212 208 213 223 232 231 224 224 220 214 213 215 222 230 232 225 220 226 229 228 227 223 218 213 207 206 214 225 228 226 229 230 230 228 223 218 222 227 222 219 218 218 220 226 234 238 236 236 239 242 243 246 246 239 232 237 244 248 249 251 258 261 259 258 262 265 263 259 255 252 251 249 247 246 244 242 236 233 233
